# .PCD v0.7 - Point Cloud Data file format
VERSION 0.7
FIELDS x y z
SIZE 4 4 4
TYPE F F F
COUNT 1 1 1
WIDTH 1597
HEIGHT 1
VIEWPOINT 0 0 0 1 0 0 0
POINTS 1597
DATA ascii
82.040123 -29.468601 41.790035
81.743103 -45.299332 41.531681
83.106544 -43.929401 41.796738
69.951904 -51.396095 40.853615
65.470978 -33.494499 40.538074
85.263565 -36.700199 41.917603
70.955925 -50.286148 40.321518
74.026352 -51.739651 40.675129
84.944664 -32.905102 41.764206
67.276985 -40.742599 40.562515
85.01963 -33.410599 41.763504
67.024551 -48.990856 39.765141
69.006187 -43.7061 40.582687
68.060242 -38.4646 40.504517
83.269737 -44.707661 41.466522
72.714363 -51.513699 40.810017
69.474785 -51.09222 40.556255
84.132889 -39.865601 41.591232
71.020744 -44.531799 40.637955
86.772354 -29.3787 41.73119
78.052086 -48.16016 39.745113
72.552635 -45.56002 40.258842
83.085106 -30.360701 41.412506
68.539841 -41.2883 40.373653
68.93956 -40.064701 40.393078
67.446869 -50.140522 39.820503
80.00061 -25.702101 41.063793
72.197708 -43.646 40.494701
71.294167 -48.019299 40.350521
69.750587 -42.116798 40.213112
73.010628 -51.628502 40.400883
70.435135 -42.318726 40.131466
66.409996 -36.613899 39.886993
84.317131 -42.289299 41.123947
69.36203 -51.684166 39.934414
66.756561 -39.447498 39.782116
85.559181 -33.455799 41.06765
71.432205 -43.631916 38.884655
67.957031 -50.953938 39.712795
68.56636 -51.214844 39.68293
81.477654 -45.503601 40.652443
69.663239 -40.101467 39.724289
80.486771 -46.127998 40.616917
68.805901 -41.668301 39.787079
66.759491 -42.860001 39.616814
83.128258 -45.075226 40.012825
73.061401 -46.190128 39.427681
77.589615 -48.794834 40.024529
71.651901 -27.159599 39.860588
69.153839 -41.971199 39.623756
66.943726 -40.8283 39.423695
71.089981 -45.310852 39.623573
79.574516 -46.527 40.243073
70.617226 -48.273632 38.533321
85.237007 -41.355301 40.616077
71.720001 -48.4739 39.649422
69.466644 -40.078098 39.476917
70.403877 -50.0019 39.514889
74.785126 -50.641094 39.496387
66.743515 -37.8736 39.208809
72.681053 -49.966099 39.609066
85.659065 -37.8167 40.496525
64.598175 -30.2206 39.018288
65.592644 -28.937002 39.072193
78.56971 -47.118504 39.150444
70.387482 -48.647224 38.648331
86.172501 -29.984501 40.4781
73.26577 -47.5354 39.544792
71.730858 -40.302898 39.414005
84.583397 -44.145802 40.243477
83.849342 -25.046301 40.180016
83.924347 -44.941776 40.10429
71.591133 -45.307426 38.838707
86.624832 -34.3311 40.299915
64.372269 -32.535999 38.739754
81.466934 -45.332901 39.947014
80.401688 -45.391174 39.85183
72.732681 -50.240101 39.282368
67.093666 -45.645802 38.874817
71.885696 -48.725201 39.199383
84.835892 -43.256001 40.096031
70.584473 -49.649742 38.480862
73.105301 -50.601063 39.192341
78.743149 -26.704802 39.595901
71.348595 -42.801399 39.04023
76.368973 -49.5149 39.365021
67.881966 -28.0037 38.754711
86.934776 -28.085499 40.014843
70.635735 -49.793434 38.215702
71.961235 -46.142799 38.933506
86.0177 -30.268167 39.695625
78.365898 -26.771101 39.349785
82.614632 -45.109913 39.48085
80.994843 -44.837223 39.131573
81.507851 -44.678696 39.159843
77.647087 -26.769697 39.254513
66.599785 -41.226398 38.400009
69.822258 -49.096203 37.271877
65.141121 -36.278198 38.207989
66.854553 -43.240898 38.258842
67.521545 -45.994701 38.299366
71.378838 -48.4967 38.494411
79.382492 -46.035599 39.04987
80.069214 -45.876461 38.778667
73.057953 -48.805775 37.949261
85.849091 -42.0313 39.470779
86.616714 -39.0177 39.465515
65.788231 -38.6894 37.956821
86.105225 -30.541302 39.375919
82.041809 -44.732033 38.975285
71.47451 -39.3269 38.327679
72.494171 -40.878201 38.243301
72.356316 -46.981758 38.090904
86.244446 -26.740601 39.19138
71.319885 -27.453699 38.13472
75.918701 -49.147499 38.43856
71.146049 -39.360901 38.104824
80.80323 -45.202202 38.77544
67.661308 -46.607399 37.838894
65.369293 -37.292999 37.642929
82.542923 -45.352978 38.586014
82.150856 -25.6306 38.745739
73.741837 -46.182701 38.146896
86.050781 -28.190458 38.230774
86.382431 -30.765301 38.949615
76.187973 -26.659599 38.226128
87.010147 -35.412701 38.969952
83.21257 -45.363998 38.703697
83.858025 -45.1852 38.705429
80.500748 -45.600441 38.745434
84.205376 -44.626511 38.617832
68.086319 -47.483501 37.518257
80.885498 -45.361069 38.286896
84.783478 -43.68 38.480339
80.928253 -43.168587 38.119785
73.440308 -49.308796 37.622303
72.217209 -44.2892 37.466187
66.86454 -41.698502 37.049484
85.246658 -43.1996 38.323463
68.999756 -48.479801 37.186871
71.903069 -47.0989 37.381168
79.0186 -46.272301 37.874416
66.367912 -43.6712 36.919228
64.252571 -32.465698 36.768501
81.819824 -43.125488 37.924953
70.87133 -46.895901 37.206669
65.349068 -30.760998 36.795555
63.51683 -35.184799 36.653198
86.99826 -39.862041 38.251263
81.05265 -46.003887 37.725563
78.044495 -47.256302 37.646915
66.153801 -29.7805 36.790077
65.571388 -39.499901 36.712662
80.66967 -43.491482 37.54491
73.12352 -41.684299 37.234039
81.314598 -45.445644 37.662716
85.449188 -26.9739 38.073284
72.366646 -39.903069 36.876133
67.587273 -28.5961 36.754581
75.455971 -26.526697 37.303116
70.7743 -47.022099 36.949978
76.530014 -48.10091 36.837234
80.515381 -26.807013 37.487267
86.07151 -41.7808 37.968636
80.560944 -46.174057 37.067757
87.073158 -31.5529 38.015827
82.615059 -45.619007 37.775379
72.312035 -45.1577 36.978813
71.981499 -39.741875 36.780499
86.012077 -28.397993 37.521465
87.912781 -36.536999 37.965874
63.921455 -32.132999 36.274101
60.737907 -33.405499 36.014496
73.304619 -47.068176 36.879852
65.251701 -30.042141 36.292896
82.208435 -43.474991 37.248234
61.915833 -30.808702 36.010956
83.05526 -45.456699 37.488468
62.705605 -34.453602 36.046032
72.306412 -45.633801 36.706657
66.800316 -44.066399 36.304996
67.452591 -28.1998 36.348099
71.473999 -48.174122 36.322647
84.293411 -27.2491 37.463573
63.483185 -36.8969 35.973095
71.268143 -27.690302 36.453415
63.550728 -28.436502 35.903137
80.389763 -26.207001 37.055573
82.299553 -45.35693 37.096176
60.010445 -36.7402 35.541298
81.215988 -43.851009 36.807072
64.287033 -27.585897 35.815483
83.731445 -44.906898 37.151115
82.25544 -45.565037 36.766987
84.375984 -27.275 37.089725
63.55846 -38.914398 35.623493
73.557945 -42.700298 36.31551
71.975929 -45.928398 36.180225
74.905952 -26.183903 36.368168
84.231514 -43.768272 36.80069
85.201996 -43.016502 37.051899
74.859718 -48.317902 36.335464
66.999573 -44.669201 35.775005
79.248123 -46.273701 36.610554
71.35128 -48.2812 36.035698
60.218945 -40.4338 35.228878
72.913498 -40.6036 36.097221
70.877106 -26.721397 35.894176
66.029228 -26.060801 35.519592
68.262497 -45.671398 35.656811
73.050323 -47.842499 35.975471
65.506004 -40.565399 35.425568
62.313099 -36.224998 35.190865
70.702652 -47.952801 35.689407
82.005615 -43.771114 36.385242
71.317764 -45.677601 35.702251
72.643867 -40.410301 35.765705
87.647141 -32.721001 36.777447
70.037712 -47.654598 35.513496
59.430595 -32.7117 34.753429
87.943283 -37.539299 36.747028
86.037285 -28.2579 36.60162
65.847046 -41.709599 35.180359
73.456421 -48.072102 35.70734
69.088791 -46.898201 35.34449
60.567329 -29.994497 34.7439
78.305908 -47.0242 35.957138
74.008354 -48.177799 35.64439
86.133667 -41.143002 36.476139
58.481186 -35.867001 34.502491
63.888939 -40.914001 34.879738
62.072536 -38.814899 34.751919
73.866882 -43.961601 35.542976
88.055031 -38.212738 36.129959
62.365105 -26.932199 34.712429
71.264923 -45.973209 35.279781
82.285667 -45.511417 36.111244
69.354797 -23.918699 35.092632
86.978981 -39.880699 36.283432
73.268074 -41.488304 35.209675
74.258995 -25.203699 35.345852
79.531342 -25.3901 35.69418
66.254959 -42.5396 34.729816
60.871067 -42.8368 34.2981
62.558346 -41.50729 34.129456
72.95108 -41.293293 35.079014
84.809158 -26.453699 35.911068
74.68148 -47.407902 35.180119
81.318649 -46.1759 35.577171
77.183731 -47.340698 35.285522
64.687546 -24.0914 34.408699
79.702705 -46.237999 35.449738
87.525009 -39.54549 35.829712
58.001774 -38.897999 33.782093
88.344017 -38.336399 35.897415
59.014149 -29.358101 33.816399
61.155514 -44.025501 33.897369
57.906769 -32.027802 33.648346
72.63089 -45.043495 34.364483
71.885628 -47.080128 34.556324
72.60305 -47.309299 34.599014
60.779243 -26.097099 33.763397
86.758049 -28.752901 35.579407
68.34243 -44.245201 34.289955
83.37867 -44.577801 35.327663
64.670776 -42.4995 34.019176
88.408417 -33.84 35.595974
56.90958 -34.778301 33.351055
73.594704 -42.9585 34.485214
75.869156 -47.5401 34.602657
73.298859 -22.6073 34.409592
83.951714 -43.371471 35.101521
89.275063 -38.100201 35.469219
73.224678 -42.921101 34.337944
72.347214 -45.011902 34.256641
72.816902 -47.598579 34.156914
62.873985 -42.842098 33.574856
66.639885 -42.8531 33.812531
85.189529 -42.170399 35.040279
67.795044 -21.462 33.817726
89.098091 -38.296902 35.295052
69.046875 -45.5382 33.835091
72.453423 -46.083302 34.025082
78.140015 -24.5951 34.377319
63.04351 -22.748301 33.303825
71.663132 -47.483593 33.916405
90.586899 -38.416599 35.215008
88.925102 -38.102203 34.86964
78.921967 -46.446602 34.359417
71.014915 -47.144901 33.788563
70.068779 -46.2752 33.675789
81.884254 -45.333801 34.496094
92.593292 -38.948799 35.24213
57.018745 -28.8321 32.723042
86.352745 -40.450199 34.771069
80.691948 -46.256599 34.345352
64.971252 -42.955502 33.237236
58.995075 -25.544199 32.801792
92.492012 -39.172298 35.12067
90.564224 -38.638199 34.948574
55.566044 -31.537498 32.487534
82.776863 -43.639648 33.676441
87.096848 -39.557018 34.362511
61.582806 -44.166801 32.785568
82.676643 -24.717501 34.245655
56.367954 -37.535301 32.403564
88.751839 -34.823601 34.655739
94.912209 -39.43251 35.09071
57.970798 -41.149502 32.453098
90.643806 -38.499878 34.574539
73.76329 -46.877102 33.523632
92.384048 -39.084839 34.690926
77.174362 -23.620001 33.740707
72.015709 -47.209702 33.317524
52.573895 -20.5375 31.926443
54.743076 -33.9879 32.062592
50.59235 -24.066 31.768932
51.263664 -20.186199 31.806553
94.753944 -39.367603 34.698898
52.211784 -24.3426 31.837969
61.3321 -22.111 32.460083
54.768017 -21.024754 31.966665
83.599533 -42.860485 33.781319
57.06459 -25.1749 32.149242
94.936111 -38.554005 34.658676
88.916138 -35.450409 34.288696
48.729851 -23.6315 31.473089
53.626244 -24.6527 31.789019
66.959114 -43.057701 32.710819
71.274017 -19.365299 33.012043
54.879036 -28.308599 31.842937
84.968475 -41.831238 33.949764
85.89386 -27.342897 34.000679
87.555344 -29.956099 34.113556
49.035774 -19.7346 31.393238
63.351326 -43.105999 32.385559
55.26226 -24.924801 31.812901
56.605473 -21.395 31.884068
59.414268 -21.799101 32.035267
89.56472 -35.769367 33.892086
57.920219 -42.3783 31.884787
57.879116 -21.6145 31.866171
65.209473 -43.313702 32.369438
81.667542 -45.398399 33.507866
53.076675 -30.925701 31.502684
96.171661 -39.657902 34.35273
94.655289 -39.619526 34.272709
49.145405 -27.0399 31.182974
50.526497 -27.532898 31.27564
92.365433 -39.437725 33.997128
52.688721 -27.906902 31.37952
85.935913 -40.527237 33.320641
65.978142 -19.423599 32.270512
58.44434 -17.26367 31.698704
47.768482 -26.5613 30.960279
56.045723 -16.751499 31.53397
88.068848 -38.829559 33.617943
92.817818 -37.580601 34.049793
54.369015 -16.343901 31.34515
91.088509 -36.7715 33.909218
95.614639 -39.563259 34.203445
95.9431 -39.135399 34.213501
76.393944 -21.121799 32.817818
87.214226 -39.5145 33.559914
59.630577 -17.526501 31.62125
46.627029 -26.392597 30.711855
52.072628 -33.2822 31.009541
54.269897 -36.445801 31.136927
90.048798 -38.671772 33.418507
50.5243 -30.572699 30.825388
45.751892 -23.2463 30.489767
60.750793 -17.7124 31.50531
51.837635 -15.6344 30.790615
74.423752 -46.9921 32.355961
64.034363 -18.4041 31.62455
48.228535 -30.0121 30.511078
72.633064 -46.2971 32.217312
94.667229 -39.954491 33.673515
95.266571 -39.85873 33.603058
68.084396 -44.068199 31.873074
79.740723 -45.670898 32.682648
62.136414 -17.940201 31.447327
95.854485 -40.134953 33.78791
56.104145 -39.698299 30.965162
95.151619 -38.152401 33.632175
93.784889 -39.54414 33.536552
87.078156 -39.732101 33.037247
96.085991 -39.1217 33.600876
96.197105 -39.988167 33.546059
46.878166 -29.224197 30.142384
81.156128 -23.8736 32.512665
46.182163 -18.795799 30.007706
87.796814 -38.431099 32.87368
49.26445 -32.8354 30.164398
77.745384 -46.520401 32.090221
88.286041 -31.3701 32.810249
93.021729 -36.706402 33.113434
58.488113 -42.385799 30.654701
69.242424 -45.033901 31.331034
51.760796 -35.2257 30.104687
87.026924 -28.845301 32.535652
45.618092 -28.1301 29.577709
52.329723 -13.0123 30.028086
47.748894 -15.5825 29.706459
90.957848 -34.976299 32.724117
85.055214 -41.200001 32.304951
54.329651 -12.8262 30.140568
56.689522 -12.711246 30.231766
89.885368 -38.2864 32.580357
56.009079 -40.719101 30.19445
95.345932 -38.491501 32.860447
89.983719 -34.382801 32.469746
95.049583 -40.5825 32.796318
47.008411 -32.0774 29.432335
60.737671 -13.180336 30.332802
84.792397 -25.973402 32.049492
84.01503 -42.323101 31.993128
71.106255 -45.652699 31.073217
89.088531 -33.60165 32.233604
79.945511 -22.6952 31.676481
73.362259 -46.6399 31.182051
62.337479 -44.8587 30.400999
92.552528 -40.196701 32.466228
44.04282 -25.485798 29.066374
66.082748 -43.892799 30.599642
88.831726 -33.164299 32.177174
92.403824 -39.483898 32.396484
62.29414 -13.3414 30.289804
88.513214 -32.498699 32.114601
43.407318 -22.1294 28.933826
75.181183 -18.2834 31.154873
63.436863 -13.56 30.325005
81.195908 -44.657902 31.565233
92.744225 -40.653301 32.319546
54.112022 -38.2328 29.60428
64.750954 -13.902601 30.329485
82.97718 -43.297729 31.784916
49.083851 -34.330399 29.187515
66.574951 -14.4881 30.381645
69.372093 -15.6029 30.543358
48.3176 -12.9849 29.063866
95.230164 -39.567799 32.328377
87.897476 -39.7314 31.591978
92.68779 -41.027374 31.747078
43.803577 -17.663099 28.450788
87.709892 -39.179901 31.514904
93.027023 -36.4417 31.869173
52.473122 -10.7156 28.99798
76.650284 -46.825901 30.680092
45.722984 -30.967697 28.476145
64.164436 -43.314098 29.727201
87.959969 -40.0919 31.361977
55.662251 -9.8705101 29.057384
56.638577 -40.9757 29.106913
69.285194 -44.7304 29.98263
93.031128 -41.561501 31.545372
86.512642 -40.308052 30.953276
90.289383 -39.9184 31.281172
52.01572 -36.892799 28.600807
44.173416 -15.031799 28.037382
46.869453 -33.341202 28.221298
89.945503 -39.2033 31.2057
78.594788 -20.6661 30.381004
71.761925 -46.2043 29.899494
54.114666 -39.211498 28.613253
90.683525 -34.344002 31.146639
90.304176 -40.306 31.103973
58.530293 -9.2995567 28.6821
85.833633 -40.697159 30.527592
48.525829 -10.7024 28.101746
87.668213 -30.393799 30.819302
78.661919 -45.344898 30.139196
93.146355 -41.553398 31.141924
89.43647 -33.803398 30.847319
42.458195 -24.069901 27.480375
43.561989 -26.643099 27.536211
44.565166 -12.608699 27.600243
85.959869 -27.6026 30.473593
44.580544 -29.753599 27.527943
88.032265 -33.549801 30.462831
88.164169 -33.879002 30.448795
66.907211 -43.996799 28.892895
69.791595 -45.2327 29.077147
49.613026 -35.8078 27.642267
66.616531 -10.0919 28.827961
41.831848 -16.604601 27.082115
59.668579 -42.836399 28.283772
84.010956 -24.664 29.981344
90.480125 -40.873402 30.273497
87.941505 -40.679813 29.987736
61.24205 -8.8066702 28.314705
40.874329 -20.0453 26.87121
93.051506 -37.2173 30.478292
75.567337 -47.152 29.248062
63.984894 -9.0106039 28.256531
73.577621 -14.7492 29.092787
45.572655 -32.130402 27.096497
62.674606 -8.80861 28.272232
68.242569 -10.5445 28.659178
86.754265 -41.0541 29.945019
52.193161 -6.981802 26.457293
55.614109 -7.71208 27.626947
42.098007 -14.098899 26.618952
52.285404 -38.110401 27.330221
54.727745 -39.7043 27.463718
90.497177 -41.5163 29.938097
88.203354 -32.342701 29.757946
48.370968 -8.51859 26.885881
44.69804 -9.9678001 26.607494
87.752052 -41.222698 29.597374
92.898209 -39.050598 29.949812
85.909576 -41.222088 29.19066
84.09127 -42.5429 29.307306
47.439346 -34.784901 26.672976
44.267372 -30.904699 26.4214
42.203037 -24.853701 26.183519
77.494713 -18.159599 28.623184
90.452385 -41.522701 29.510729
42.09531 -12.5528 26.118446
70.376671 -10.8057 28.024195
82.438255 -43.563202 28.856998
74.481537 -47.2062 28.294195
82.343529 -22.980801 28.842657
80.505196 -44.529701 28.711405
65.377357 -43.093102 27.531664
58.610561 -6.0849905 26.735863
57.956345 -41.331501 26.881113
78.020737 -46.450298 28.272928
43.388115 -27.8337 25.807972
67.873146 -44.4389 27.51853
86.694405 -29.2598 28.665226
63.361115 -44.271999 27.022978
85.151054 -26.156099 28.541767
0.18921785 -22.0975 22.59063
40.535801 -21.8864 25.386074
87.820839 -41.640999 28.685452
0.36547354 -23.116301 22.567169
50.245514 -37.100201 26.049007
45.980118 -33.5378 25.729288
42.11161 -25.1395 25.263197
90.252617 -36.014 28.575619
42.10181 -9.43538 25.196955
1.3746748 -21.7152 22.341917
67.847427 -6.7456598 26.974407
85.778244 -35.622467 28.171835
-1.2554837 -22.0611 22.118702
1.7455724 -22.702885 22.282406
0.025701806 -18.712601 22.193356
-1.2623067 -23.084801 22.097677
1.2781565 -18.6611 22.269709
85.820656 -40.970001 28.127867
43.059719 -29.2649 25.12129
52.824005 -38.824501 25.790745
-0.070981495 -19.619499 22.003948
44.896225 -7.4187994 25.146662
0.49815521 -23.910801 22.033623
1.0872341 -19.5389 22.068401
54.591362 -5.4874802 25.802958
85.406746 -41.173435 27.849264
88.027237 -35.695801 28.096313
44.464333 -32.500801 25.028143
48.531765 -6.1037502 25.311766
1.3419964 -17.733101 21.999704
69.149269 -7.0754199 26.738445
0.21141395 -17.792601 21.915533
72.551888 -46.805401 26.958738
1.7911956 -23.488514 21.831123
-1.0440087 -23.883301 21.630564
38.961903 -14.0322 24.420734
55.890064 -40.317799 25.504225
37.882652 -16.906099 24.233295
79.6082 -45.721901 27.150427
-1.1893752 -18.5462 21.492989
80.345566 -21.2778 27.15658
66.809814 -43.596001 26.160044
84.040665 -43.191002 27.360331
66.532738 -5.3685799 26.132851
48.326916 -36.170399 24.857971
90.115005 -38.691898 27.779676
39.420059 -11.6111 24.216597
85.662415 -35.458099 27.446268
77.338242 -47.621601 26.861279
-1.1947278 -19.373899 21.331322
72.857155 -10.7725 26.508333
85.480911 -38.2453 27.385561
-0.16818663 -20.561701 21.361404
-0.93684798 -17.7311 21.287203
38.002934 -8.5772886 23.156624
0.84533972 -20.308914 21.331928
51.908489 -4.9558601 24.957649
-1.9985579 -21.5963 21.180082
0.80591798 -20.021185 21.347517
61.259205 -42.3951 25.575031
-2.1156831 -22.5797 21.143021
-0.21077406 -20.1231 21.270712
85.051895 -38.240601 27.227448
76.464363 -15.201801 26.618328
2.6212397 -18.193701 21.439375
58.182056 -3.3069372 24.604969
87.602982 -38.7234 27.286646
3.6278222 -19.579798 20.124659
63.441677 -3.9893799 25.548306
2.6048446 -17.3349 21.292072
2.3547223 -18.973 21.229473
40.358742 -22.6084 23.836752
-1.0993418 -20.074959 20.732058
61.796089 -4.06457 25.310036
81.932205 -44.8386 26.712675
-1.8427906 -23.398399 20.831198
84.479607 -38.541199 26.848904
43.163227 -31.028599 23.913368
0.28843722 -23.888094 20.665983
82.787163 -24.323099 26.625702
70.668243 -45.768501 25.772453
0.52677441 -16.661339 20.981472
-1.8335679 -18.117601 20.682941
41.993702 -25.646601 23.7554
1.3618872 -23.558016 20.87488
86.745331 -31.983702 26.821589
-1.7605555 -18.960199 20.588242
50.598255 -38.1623 24.217049
64.939285 -3.68788 25.181879
1.3830123 -23.669741 20.725475
37.800434 -10.8831 23.241543
2.0146158 -24.425501 20.735443
0.71910065 -24.9354 20.612572
85.55471 -27.5205 26.530825
-0.75805694 -16.685699 20.487629
-0.77327102 -23.817373 20.295376
46.913582 -35.220501 23.798498
45.158298 -5.2572899 23.671049
41.774567 -7.0939398 23.421402
-1.48515 -19.821049 20.225321
70.987755 -7.13165 25.380686
48.88945 -4.2659001 23.800533
2.3679502 -16.2593 20.490393
37.908012 -18.486 22.954546
69.271645 -43.576698 25.135979
76.120003 -48.044998 25.595116
59.491821 -40.949699 24.373316
41.691483 -27.219902 23.098522
37.27647 -12.1723 22.76824
84.774185 -34.8139 26.072462
-1.6199266 -16.940157 19.994478
40.289841 -23.131701 22.948479
82.918991 -38.5653 25.890009
36.212944 -8.7576799 22.612471
53.576309 -39.564701 23.792757
-1.2343718 -23.495228 19.74555
-0.79219562 -25.0012 19.964069
36.03751 -10.5462 22.53665
-2.3911867 -20.7859 19.843336
55.9319 -2.490922 23.532057
69.292915 -4.4919 24.786011
-2.1522045 -17.6966 19.773937
-2.5683377 -21.6689 19.730505
2.5202727 -24.789101 20.085533
83.793793 -43.5033 25.768637
39.533459 -6.8318701 22.655203
78.921791 -19.006201 25.347654
3.9764237 -17.1651 20.099243
3.0335934 -23.277201 20.025894
1.1495427 -25.361 19.864779
78.850471 -47.3022 25.290939
-2.0715766 -18.3382 19.60054
3.4484346 -18.853399 19.979721
3.7298985 -17.833401 19.958103
4.0213394 -20.183599 19.970564
3.9823229 -16.4547 19.965427
45.394688 -34.485699 22.856552
-2.2943206 -22.4461 19.516499
73.619324 -47.343102 24.78771
68.65184 -42.740101 24.420601
-1.6936048 -19.086254 19.19405
65.149239 -43.423901 24.126354
81.948662 -38.2953 25.287453
34.105492 -8.9140301 21.930403
35.965149 -14.4402 22.001699
51.960793 -2.8689499 23.051353
48.557419 -37.456902 22.785904
37.604763 -6.6584802 22.018614
-1.5714245 -24.5819 19.256592
80.999588 -22.6917 24.990124
3.8639412 -15.5271 19.552465
80.986443 -45.966202 24.938683
3.5207083 -23.5774 19.518438
4.1338487 -20.9534 19.556902
0.51900512 -15.407202 19.388523
40.297882 -23.6548 22.06509
-0.47772443 -25.471903 19.206062
57.280178 -40.051498 23.241682
41.797676 -28.873798 22.137587
36.137516 -6.8347001 21.694275
-1.6659145 -22.531532 18.784147
-0.6008777 -15.552 19.087179
3.5880451 -14.708904 18.755247
2.7558753 -24.8193 19.208933
34.341286 -7.2476406 21.395445
81.843323 -42.904099 24.71521
85.172935 -31.2665 24.925884
-1.6014814 -22.831654 18.74699
70.712151 -42.706402 23.886021
45.764374 -3.32041 22.131374
4.0246053 -21.180401 19.204924
71.735054 -45.7999 23.923164
60.474583 -1.29247 23.132246
81.196869 -37.902302 24.578783
-1.654097 -16.07815 18.667654
1.4988991 -25.329798 18.948515
5.3984609 -16.339701 19.212681
63.576591 -1.63063 23.224855
72.455536 -7.3738399 23.830894
83.615845 -25.7934 24.607693
5.4647851 -17.874701 19.095821
51.072601 -39.083302 22.273403
78.593796 -41.3601 24.195066
80.110497 -42.2062 24.263733
63.037304 -41.204201 23.050915
49.218544 -2.4820099 22.070375
83.481377 -34.4785 24.452034
55.213333 -1.6371 22.466215
57.91983 -1.1498076 22.580101
-1.3572148 -25.037502 18.501596
44.103767 -33.2798 21.656281
32.667519 -12.0792 20.850563
-2.2069013 -16.9314 18.395466
3.6473947 -23.7026 18.778475
5.6735873 -14.8803 18.913544
77.290596 -47.8302 23.897234
68.132225 -2.1444499 23.251507
-1.9438484 -23.7124 18.335367
4.4168615 -21.481501 18.777145
29.714809 -10.074 20.542542
41.589886 -4.3378701 21.361801
10.002659 -15.762599 19.130955
11.139687 -13.88194 19.226204
-2.130548 -17.591801 18.257856
34.950317 -13.109401 20.819927
-2.4028399 -19.7024 18.205135
7.9257469 -16.244699 18.921967
-0.026219167 -25.4722 18.356787
74.609352 -11.6653 23.551861
11.785257 -15.1015 19.157366
-1.8212502 -18.13427 17.133907
70.068306 -41.812698 23.174574
76.84201 -39.7822 23.640417
-2.5863357 -20.5138 18.084843
29.921324 -8.2742996 20.345968
71.686462 -42.135899 23.260359
7.9134154 -14.602101 18.790384
40.14436 -25.6077 21.036476
77.868088 -16.7201 23.672169
2.2710285 -24.423517 18.352324
-2.3440113 -21.2852 18.006655
47.22139 -36.504398 21.41366
54.683754 -39.522701 21.931271
29.500011 -12.0608 20.159426
24.538269 -10.7002 19.80184
24.373329 -12.5982 19.766548
74.72406 -47.0783 23.261953
14.584892 -12.9338 19.052502
4.8251839 -21.73 18.360014
73.071083 -45.2813 23.127922
5.9804659 -19.162001 18.417242
70.764778 -3.4974699 22.942692
75.191757 -43.973099 23.210855
61.192272 -39.879799 22.2258
14.82925 -14.398301 18.97135
38.301025 -19.4531 20.599827
2.6063578 -24.201498 18.127474
79.340088 -46.552299 23.452717
24.866224 -9.08039 19.58168
3.3277164 -23.4084 18.060827
-0.82516956 -25.1166 17.762007
20.258501 -11.2791 19.220385
-1.8002146 -24.142 17.653126
52.649204 -1.6878101 21.442457
40.282043 -26.620302 20.557011
5.8000069 -13.807701 18.131958
1.6167653 -24.5357 17.83222
71.189835 -41.3325 22.682909
3.8524909 55.757202 17.936729
38.623909 -20.497801 20.360466
2.7590976 55.791603 17.835814
77.649452 -45.540901 23.065943
39.094585 -4.0672598 20.365814
20.73086 -13.1446 19.069767
73.275757 -41.315899 22.735344
3.1483626 -24.613001 17.825241
0.107691 -24.628822 17.40217
56.338421 -0.89358199 21.520794
2.7018592 57.004845 17.618723
3.8892758 56.749405 17.781116
-1.8339958 -22.609699 17.367573
35.258724 -15.3204 19.957441
66.820885 -42.0471 22.14263
79.618149 -20.4266 23.035799
1.1677961 -14.750205 17.545906
11.411837 -12.1237 18.245796
48.987869 -38.404099 20.85623
2.0312784 -25.042999 17.5714
34.208344 -4.91608 19.813017
8.4859343 -17.8109 17.993984
9.5411568 -12.626 18.059752
46.314762 -2.32742 20.626902
10.634043 -17.0898 18.119633
62.324009 -0.041598 21.72282
3.2664661 -14.220235 17.396181
4.9977317 -21.849899 17.689716
0.29919398 -24.602499 17.18058
7.838798 -13.1695 17.875853
1.867926 56.469906 17.233833
-0.77070791 -15.249129 17.097383
6.4504604 -19.5541 17.719826
2.1268442 56.870396 17.376152
14.665248 -11.2424 18.267498
38.668678 -21.8438 19.945379
5.8064394 56.71608 17.58486
20.325048 -9.2092304 18.644321
5.805789 57.947842 17.422787
36.953953 -4.2391601 19.794096
35.532951 -4.4460402 19.67428
2.3986609 55.326996 17.348383
-1.2480806 -24.3535 17.092176
4.1306295 -23.5263 17.455759
81.600174 -24.1782 22.858223
58.795906 -39.256401 21.258484
12.408875 -16.2059 17.993332
51.975407 -39.3144 20.739344
3.5952077 55.265598 17.309353
72.913826 -40.523998 22.148266
24.821259 -14.060301 18.768265
-1.6434747 -21.013901 16.904436
3.4683497 -24.7852 17.248556
-2.0527537 -19.091904 16.751564
30.304932 -6.2702799 19.104906
-1.8245125 -17.211445 16.943377
-1.7161386 -23.010401 16.841816
3.9270475 58.424046 17.230806
79.7752 -36.696701 22.538944
0.78001696 -25.159901 17.013659
-1.828784 -19.597637 15.971799
45.871262 -35.863201 20.136873
2.4031391 -25.269197 17.065004
24.995823 -7.6034002 18.642935
42.761093 -31.2516 19.875883
21.120329 -14.4033 18.356998
76.121323 -38.565601 22.194422
15.366247 -15.4234 17.943605
82.92823 -29.3099 22.657278
-0.27458888 -23.823397 16.541712
4.9945664 -21.875 17.170732
1.3321208 56.336517 16.671963
29.373947 -13.9405 18.870092
66.602325 -0.56815398 21.443279
49.949162 -1.9322499 20.237677
-1.4653456 -15.9184 16.577766
5.6180725 56.147301 17.016949
34.114723 -14.4239 18.982866
32.171505 -14.134499 18.823526
-1.2193058 -23.3396 16.465958
64.692314 -39.751701 21.068632
0.054818299 -24.974001 16.544626
57.500751 0.039078001 20.544598
53.27499 -0.97049099 19.973341
2.1755388 55.108303 16.669565
81.759171 -33.269199 22.218658
4.4076486 -23.575199 16.778334
6.7342706 58.900795 16.935114
-1.4533087 -21.5515 16.347944
1.4679925 57.534306 16.517939
1.0700909 -25.352301 16.46335
5.4294014 -21.827101 16.766678
3.5183291 -24.594341 16.548283
6.7133136 59.781254 16.817268
3.2689071 55.076599 16.543627
6.3164186 56.735703 16.754824
2.8315732 -25.01597 16.455938
47.720779 -37.2644 19.627848
53.191189 35.991798 19.98642
52.815464 33.413399 19.934982
7.1103945 -19.705799 16.722532
1.1066493 56.376827 15.954557
55.586525 35.004002 20.099684
41.382458 -2.6993799 19.068445
6.124187 -12.882599 16.594027
56.362595 -38.778801 20.078568
69.902596 -0.62001902 21.012846
55.300217 32.3325 19.989443
60.982349 0.94210404 20.372343
-0.53182459 -24.187666 15.763727
57.461147 34.150299 20.110277
6.9356089 58.153194 16.576183
50.183182 34.459999 19.599148
50.691212 36.928299 19.600687
71.965347 -3.49633 21.085615
8.1825342 59.591301 16.592705
38.948742 -24.630199 18.738575
57.145592 31.269302 19.991175
3.9233751 59.976933 16.316378
49.88126 -38.943401 19.444109
-1.6991433 -16.874525 15.578042
5.3795977 55.916199 16.320017
-1.7988592 -18.201229 15.734187
0.2306608 -25.0975 15.953653
-1.1558002 -21.981899 15.848783
2.1117654 55.569252 15.882856
1.1073081 57.404301 15.974557
49.207165 31.824001 19.335821
3.0060406 59.888599 16.10462
56.032875 38.2314 19.786257
53.686199 39.292599 19.62216
59.740715 32.883301 20.044231
6.0698872 56.612297 16.281475
0.74066937 -24.994314 15.606236
50.554302 -1.4220999 19.368073
3.107846 55.487522 15.890663
62.922783 -38.699402 20.227448
45.804028 38.761002 19.012543
68.793968 -40.5224 20.601912
6.2712355 60.844921 16.102812
64.32177 1.00079 20.276453
6.9916568 57.916992 16.261196
14.860833 -9.8737402 16.797958
-1.5684725 -20.044504 15.628826
7.296279 -19.820999 16.25877
43.069553 39.9244 18.614878
20.908262 57.392403 17.170713
55.431568 0.113905 19.579006
51.999741 30.251801 19.326199
9.2206631 -18.215401 16.331083
57.992325 37.9408 19.732109
2.6781299 53.502201 15.861655
78.651215 -18.103201 21.16048
73.963341 -8.3676996 20.830067
4.6044865 56.084469 15.965719
20.186213 -7.9501095 17.058773
45.347607 33.8843 18.813419
1.4403021 53.572903 15.739412
7.9109707 -12.0175 16.186872
1.5501438 -14.837058 15.746423
1.5979698 56.120903 15.497026
65.510582 0.35217199 20.2017
2.3150985 59.660301 15.778328
11.309212 -17.2234 16.396132
10.091682 60.1022 16.303877
54.637707 29.1138 19.410219
10.25706 60.970505 16.288475
-0.54715228 -15.437635 15.496122
3.0520148 -14.3133 15.772719
-0.75816262 -22.542299 15.501274
44.670555 -34.631001 18.672951
11.644473 -10.585 16.362535
22.409273 55.777199 17.101151
8.0768509 59.0868 16.090609
-0.36008948 -24.377399 15.490617
4.3856468 55.873501 15.821269
9.7295418 -11.2077 16.181416
41.763741 38.3853 18.415453
59.448124 30.028702 19.642542
50.917419 41.124298 19.032084
5.6847162 -21.6078 15.865494
56.760159 28.709 19.432026
25.096064 -6.3037305 17.195101
51.02322 45.410599 19.001289
1.0629852 54.316299 15.500407
9.9777803 61.647774 15.887864
56.672333 40.276409 19.364838
13.221801 -16.3892 16.321165
59.393467 1.62395 19.535269
53.561626 45.763401 19.118645
60.360748 37.980499 19.566519
50.998478 43.047298 18.900818
54.006596 40.8983 19.110165
53.878628 43.122398 19.083872
61.661549 31.850601 19.606155
46.434418 42.356201 18.540167
23.804276 54.208801 16.957712
5.3023696 54.558998 15.645084
2.0218089 -23.890024 15.000735
37.754425 42.1968 17.905737
75.609299 -12.8189 20.541178
69.604675 -39.870201 20.119789
4.5924625 -13.6701 15.568077
38.451138 -2.4544301 17.935709
80.216797 -22.0795 20.855547
53.920959 -38.690601 19.01606
-1.2618384 -20.880171 15.091151
53.013714 -0.038031999 18.944801
1.0576553 57.241699 15.29694
56.849293 42.385513 19.179701
5.5012107 56.680103 15.60155
-1.0748038 -15.9265 15.117051
9.7990074 59.528702 15.876117
3.6094637 -22.410217 14.695289
30.505274 -4.4323401 17.284946
41.421154 -29.129801 18.031921
13.440031 60.180397 16.068872
25.82596 51.735298 16.93107
59.00214 28.4751 19.249575
57.661072 45.264236 19.053429
16.189165 -15.4064 16.216002
60.868992 -38.033901 19.337011
0.73714083 55.2383 15.122959
47.559628 -2.0390501 18.390093
81.377815 -27.242598 20.752384
17.502901 60.387001 16.284309
61.275436 28.906 19.339071
50.952877 48.2355 18.612635
33.388515 -2.82056 17.374992
32.47287 44.876801 17.294924
-0.017410252 -24.087114 15.034534
6.1340947 57.443283 15.387431
60.413441 40.6003 19.232882
6.0510383 55.125198 15.428985
13.728719 61.287701 15.964457
53.183567 48.817501 18.722206
46.616375 -36.5186 18.254662
62.944523 2.0522399 19.388922
21.402029 59.2029 16.48168
37.549759 40.393101 17.605728
28.542002 48.490299 16.97514
57.32357 2.42326 18.966894
42.45961 42.530602 17.908257
62.384804 38.610401 19.295149
23.384451 57.433174 16.516174
1.3173515 -23.625799 14.608009
1.3653463 57.267036 14.893953
7.8463473 58.699795 15.450973
16.762478 58.880295 16.060915
46.525436 45.763901 18.120193
1.7643734 59.276501 14.988489
48.661106 -37.989601 18.261112
-1.3442162 -16.861954 14.564959
2.863992 52.914501 15.045834
42.171345 -2.4480801 17.768711
51.216396 -0.13619199 18.394888
21.738867 -14.2834 16.31086
65.707901 1.4810801 19.385475
58.436787 9.4920864 18.873573
-0.46642613 -22.545574 14.670877
44.889416 32.0881 17.909956
1.4352922 53.011501 14.870646
13.241552 59.627697 15.670258
63.490601 30.2332 19.180407
37.546688 44.027699 17.34568
17.842281 61.070202 15.960996
56.722893 48.325016 18.6675
60.794785 44.3811 18.931747
34.693142 -2.2944901 17.103336
35.965546 -2.35935 17.186497
25.778978 -13.391601 16.46035
48.58007 29.663097 18.04804
61.231155 3.0097301 18.925873
57.254436 7.5076995 18.632458
5.5777903 -21.134199 15.016768
7.3779807 58.318501 15.119192
8.0128794 -11.831422 14.765275
20.198668 55.928795 15.996155
61.191029 8.34799 18.851797
61.128719 25.9 18.846838
48.098251 -1.7116898 17.93255
51.132156 27.8295 18.121643
0.90602016 53.695301 14.609488
54.200809 10.2418 18.335526
16.433167 58.3409 15.688338
32.664417 46.945499 16.82073
13.956098 62.081398 15.502492
54.098423 26.4349 18.300196
21.917595 54.3405 16.047186
26.319563 54.242905 16.353298
54.455463 2.8696201 18.314938
59.336765 4.0220199 18.654467
56.338799 26.1733 18.430492
6.647666 56.660599 14.926179
71.347832 -38.4039 19.44865
58.389282 4.4931698 18.539494
9.3019409 59.0546 15.105667
23.360617 52.865196 16.087244
7.6313968 -19.2391 14.979429
59.765377 6.4408302 18.620684
28.891489 51.2015 16.45425
5.4546518 54.098099 14.813182
64.604637 36.890301 18.933416
42.41666 43.897099 17.369951
25.441774 50.283695 16.177738
21.669785 60.072205 15.911068
53.592117 7.9077897 18.137781
55.882675 5.1501098 18.282917
52.432487 2.9421899 18.039049
1.6407008 58.416096 14.395592
63.689583 26.001099 18.813492
67.037796 -38.013302 19.034889
3.3049242 61.620789 14.577632
-0.48810846 -16.438873 14.298652
18.063179 61.512299 15.601729
6.4596281 62.222939 14.772484
60.890244 46.133907 18.588341
22.966955 59.022701 15.925288
32.276917 43.329899 16.569185
15.354188 -9.37603 15.38373
28.271458 46.864101 16.28108
62.876163 43.3055 18.697868
0.96124446 56.8549 14.326651
58.458752 25.8992 18.344566
9.7695494 -17.5235 14.928354
68.721252 0.118128 19.048355
61.127201 5.6630998 18.500086
58.764496 -37.594501 18.334471
0.52005982 54.826195 14.256407
53.020588 5.5524001 17.916174
40.720047 35.029099 17.044207
13.678006 -15.891068 15.065085
62.696411 7.3070703 18.567713
6.2359939 54.747696 14.598162
2.2092292 61.266003 14.303651
13.024127 59.282097 15.053789
1.6755726 -15.85406 14.237626
20.786226 -7.5415106 15.59436
62.988873 21.119772 18.223166
30.627937 -12.6143 16.276245
51.895744 -38.776501 17.761332
10.300069 62.620804 14.837641
24.42914 57.808895 15.813112
36.671066 -15.6487 16.666042
-0.12156067 -21.55242 13.716822
62.2845 10.4571 18.445984
14.087649 62.505199 15.074827
0.71269125 -22.389679 13.834236
64.695229 2.7922599 18.584084
12.158478 -9.9301701 14.903839
3.484103 -15.1187 14.29005
58.543446 12.2695 18.116817
80.344398 -30.411798 19.622845
10.188703 -10.5889 14.708557
64.152084 8.8850403 18.472723
62.985302 4.1536698 18.388628
48.464428 -0.38315299 17.359396
54.851833 13.2052 17.787401
7.9654803 57.569016 14.103537
64.163551 23.5954 18.436235
-0.78888065 -20.008602 13.615357
16.678452 -14.7141 15.107933
35.449665 -13.673501 16.396887
78.104897 -33.842602 19.349659
4.9945374 -14.4299 14.209416
2.9806528 52.712395 14.066185
6.9071908 56.325596 14.329328
71.534897 -0.59876502 18.844931
47.455906 2.3817666 16.892145
22.074596 -13.5243 15.327283
33.271351 -13.2614 16.107431
-0.86730707 -18.580519 13.588858
26.550611 56.064922 15.41088
9.3141489 58.2463 14.406416
1.6454514 52.7901 13.864756
2.2296801 -22.131468 13.812843
43.341309 -32.563 16.77079
25.704712 -5.7290902 15.515465
47.598244 -36.965599 17.036488
46.367756 49.488098 16.941721
49.715126 7.6161499 17.167973
28.853016 52.967461 15.58313
64.747604 21.5723 18.196392
28.093248 46.194 15.628457
74.623543 -36.191502 18.874855
21.751852 53.923 15.177605
20.247385 55.114197 15.071501
50.550484 51.2654 17.187796
23.142824 52.679398 15.259534
60.817841 22.827101 17.882301
53.069958 51.615101 17.333399
25.430193 49.8311 15.3857
50.188435 9.8460102 17.109848
1.1288117 53.249802 13.646585
42.154606 47.659698 16.502859
45.473328 -35.0331 16.730215
40.097664 -27.236698 16.349899
0.63613629 56.468201 13.589176
32.738098 48.8312 15.830058
49.335552 5.3255501 16.986654
64.635475 5.1710501 18.049515
46.648087 50.386597 16.760437
56.678814 51.409798 17.455738
1.6476322 60.861996 13.592443
5.3765001 53.969303 13.850986
16.235811 57.485802 14.605633
6.0069904 -19.238199 13.889061
12.867507 58.5513 14.34614
65.309593 -36.9244 18.012747
6.9092813 -13.372299 13.919274
36.792519 -16.417801 16.008614
67.202797 1.32447 18.133205
79.232117 -19.98 18.929968
65.193436 11.4654 17.920422
44.223442 -2.3585801 16.452751
0.018655812 -18.006237 13.207875
37.589241 46.903801 15.978818
36.888344 37.854698 15.921287
63.135868 12.9542 17.756493
56.737904 -37.584202 17.301785
66.420021 42.778999 17.95647
38.925404 -2.6620901 16.028847
0.72466731 54.457802 13.35428
63.677044 47.019901 17.75564
7.8145695 -17.774599 13.848553
22.156599 61.967499 14.811146
31.933083 42.1287 15.49258
6.0777416 54.604599 13.676777
61.119358 49.6227 17.524261
8.6768789 -12.3858 13.849005
24.43786 60.9534 14.948713
66.155258 3.2277303 17.86488
25.380701 60.290699 15.006824
26.444708 -12.3107 15.078321
23.548468 61.463303 14.863065
18.529924 62.408897 14.503512
3.0456996 53.904202 13.387568
4.4227271 -19.9006 13.481555
50.400433 25.9324 16.694326
1.7661065 53.990387 13.25411
6.8067245 56.192402 13.630216
60.789066 14.9425 17.390696
1.1910485 58.113419 12.82229
42.078548 49.659 16.076715
5.0321732 54.947872 13.340531
60.937935 20.495701 17.387674
50.75304 -38.484798 16.670763
1.1521617 59.590088 13.199288
63.741085 16.4692 17.568151
47.905495 28.386599 16.455807
16.080355 -9.8982296 14.226866
73.33551 -4.6220002 18.223923
51.022404 13.022301 16.660528
32.774139 50.030399 15.380577
9.4591465 -16.025999 13.721963
7.8077488 57.476002 13.601475
3.9730427 -16.5299 13.327007
61.127804 17.177601 17.32316
2.5835276 -17.105665 13.202164
30.905783 -3.6045697 15.194293
29.195408 54.173901 15.068275
12.811201 -10.4223 13.921376
80.366806 -25.0089 18.644524
5.4953699 -15.857599 13.401283
10.789512 -11.1733 13.767476
44.99828 -2.1119599 16.155275
-0.023043018 -20.265301 12.984922
37.527069 48.229099 15.589232
31.448154 -11.5659 15.160645
13.204904 -14.37779 13.800674
3.0981848 53.933498 13.154363
14.405657 63.0546 13.941851
66.667244 6.4354596 17.593533
9.3072348 57.848595 13.574907
46.671799 4.9539199 16.181881
1.8173709 53.964329 13.010522
58.97538 16.070299 17.013262
9.2128258 -13.9453 13.518685
74.721306 -9.3484001 18.097382
2.4708858 -20.392931 12.942951
44.302567 30.471001 15.966287
1.4122758 55.213554 12.801881
27.41827 58.190895 14.763065
5.2703114 55.066566 13.116578
-0.051053826 -19.1637 12.830192
7.3597541 -14.8307 13.3452
46.43185 6.8243704 16.068165
0.72843254 56.004398 12.853023
5.9411788 -17.557699 13.216028
37.511452 49.705299 15.409704
16.928152 -13.0499 13.962663
0.95631647 -20.4566 12.819637
36.77364 -17.6161 15.31671
32.825962 51.481899 15.038057
12.832888 58.185101 13.601209
7.6853366 -16.611 13.240856
63.500122 -36.311001 17.139097
12.560711 -12.36618 13.520375
16.639326 -11.4594 13.832497
4.3794713 -18.1586 12.963476
65.971962 16.2841 17.250696
29.613159 56.025902 14.702227
68.063103 35.3139 17.366148
69.669098 -35.938801 17.472435
16.187626 57.006401 13.732144
26.221996 -6.4358401 14.425596
6.1306424 56.332203 12.979051
45.373734 -0.97328103 15.746069
59.024857 18.0483 16.689823
67.336456 10.9357 17.268122
55.567886 16.642099 16.443979
20.03846 54.962299 13.959317
1.2177118 60.3792 12.641036
21.579554 53.7775 14.061969
21.416075 -8.0864496 14.045926
23.121344 52.339001 14.154644
0.92473763 -19.0973 12.597894
3.1426752 52.535095 12.731436
1.3376606 56.302113 12.514893
2.3929346 -18.816517 12.604105
46.47839 8.7209396 15.746627
5.6076012 53.920799 12.877637
6.2334585 54.6894 12.914585
58.76825 22.789 16.563416
22.335918 -11.4447 14.0086
1.7707005 52.41 12.556004
32.968388 53.4417 14.734452
10.531718 63.337704 13.157707
76.309502 -14.128099 17.754333
53.577587 23.825399 16.159451
1.1087036 58.744862 12.436187
44.643444 1.7668599 15.5298
25.706171 49.3391 14.204375
7.5011325 57.376324 12.829944
9.2844191 57.889801 13.035303
59.061672 20.4328 16.503038
54.862411 -37.895401 16.201077
33.172535 -2.2139201 14.683569
37.746964 51.809902 14.926057
1.1024206 52.8335 12.360209
51.901283 16.1388 15.908906
8.2465477 63.1619 12.845843
21.943729 -9.8477898 13.802641
34.62587 -11.9433 14.63052
46.489796 52.622601 15.431557
28.044174 44.914101 14.141212
6.3339648 62.876278 12.56898
46.38464 -34.995098 15.39002
55.959896 18.2307 16.059086
67.953011 44.910702 16.897728
42.005268 51.673397 15.083282
34.557663 -1.76606 14.546557
37.219109 -11.9845 14.713415
56.309544 22.933599 16.027599
1.5797009 57.481899 12.186781
39.503899 33.8423 14.829178
49.812206 53.750603 15.543188
35.732262 -1.50462 14.547495
47.078857 11.547 15.323685
49.758053 25.174997 15.474643
2.8128011 62.161114 12.043865
0.69588703 53.984699 12.042577
69.206184 42.002399 16.832886
6.9745202 56.558002 12.475107
50.345814 21.761299 15.504416
61.627537 -36.0802 16.285091
16.297293 57.098999 13.114288
49.696373 -37.876801 15.399057
52.295231 17.92 15.580788
44.022358 -32.790501 14.994772
12.923921 58.068996 12.819757
56.147831 19.6569 15.838558
68.12207 28.966 16.67197
27.273235 -10.0561 13.81524
56.241108 20.9034 15.83656
22.577871 62.010998 13.481595
31.273373 -4.6277299 14.084832
37.499126 -12.1504 14.516471
53.043644 53.949406 15.598037
68.131081 3.4765601 16.647839
1.9327276 61.768097 12.018097
48.728748 15.1703 15.271048
26.948103 -8.4972897 13.702584
65.303505 48.819 16.375134
1.0337383 55.955898 11.877744
52.588398 19.2824 15.471069
70.586899 -0.067460001 16.727543
31.647032 40.8088 13.972322
26.67909 -7.11237 13.610194
52.94342 21.7052 15.437253
41.975319 -30.667002 14.670088
9.4236574 58.029297 12.381623
36.195629 36.8069 14.238766
24.187923 61.688461 13.369014
57.437653 53.342003 15.664006
79.201218 -27.8911 17.178446
49.348576 17.002199 15.074405
49.315025 21.752701 15.071058
50.057316 19.0441 15.120056
48.871677 25.0753 15.03474
32.425747 -9.3716497 13.884628
1.4128591 60.759159 11.314501
6.6861639 54.7799 12.0266
61.666992 51.787003 15.865623
49.022247 18.9174 14.978809
26.219553 60.0429 13.371057
43.860004 3.86358 14.604196
36.911831 -19.748699 14.114622
53.719311 -37.971199 15.280894
6.0278249 54.031799 11.926332
68.133644 25.783602 16.258469
18.942207 62.692001 12.812252
43.306248 5.5612602 14.479566
47.071735 14.6194 14.740267
32.187984 -7.6487899 13.692276
7.2775908 56.4426 11.940646
41.157578 -2.69153 14.290921
47.989796 16.551901 14.752837
72.809029 -33.43 16.48506
3.5564024 52.620701 11.621292
31.768883 -5.9953299 13.562925
27.514782 58.418903 13.252419
68.069176 16.470699 16.087957
59.956177 -36.143002 15.493575
1.253603 58.435886 11.19117
1.5578101 57.362896 10.980375
68.014389 -34.628502 16.021374
43.076321 7.2579002 14.264101
72.985847 -1.87844 16.350367
2.0301433 52.483402 11.320692
47.575825 28.009201 14.501448
41.981586 -2.3966999 14.039989
13.027683 57.888302 11.989573
14.996992 63.4715 12.109837
16.591686 57.385101 12.204308
1.2991583 52.945702 11.130237
68.472466 22.0002 15.824047
29.792078 56.4543 13.11123
20.493544 55.115601 12.447279
21.917543 54.017399 12.507058
8.1599588 57.679596 11.542829
0.79168999 54.013996 11.022176
36.091198 -9.56458 13.465699
37.55954 -13.033199 13.563663
9.4411755 58.136299 11.593526
1.1380109 55.797401 10.998276
23.519236 52.634102 12.554502
33.789085 -3.4968002 13.265023
43.330669 9.4585505 13.926821
76.121559 -30.950701 16.158636
69.531464 1.12651 15.691998
42.546589 -1.9537301 13.791597
7.3134069 56.4702 11.316625
52.528214 -37.936699 14.412193
36.939987 -7.5748601 13.319149
79.453476 -22.345501 16.226122
36.602661 -2.8796687 13.105767
25.906136 49.654598 12.460074
42.287132 -30.728699 13.587001
47.132294 16.098301 13.921597
44.867626 30.068115 13.752522
49.214733 21.7691 14.036741
6.8724666 55.028095 11.075178
48.358139 18.822701 13.975138
47.481907 -36.011501 13.907751
58.554573 -36.431 14.65476
1.4619094 58.717075 10.0649
11.080744 63.552704 11.322937
6.0550151 55.757107 10.902034
6.248817 54.388306 10.968214
7.8339047 57.735699 11.063617
36.251034 -4.5466824 13.006634
33.087261 54.961796 12.825193
69.660049 6.5350003 15.379807
36.606014 -5.5674944 13.012503
22.840132 60.573799 12.076365
28.395292 45.4562 12.451589
38.275558 -9.7487402 13.112512
6.7132845 56.736073 10.854954
66.335129 -34.067799 15.066207
31.815781 40.8013 12.632832
5.1339989 55.107204 10.74811
74.262085 -5.73557 15.595854
9.9639149 58.406296 11.087958
44.935505 -32.677101 13.527899
25.511053 58.48415 12.00223
69.579758 2.9983799 15.210593
45.661217 13.7577 13.53584
51.459209 -37.941101 13.911903
3.8695121 53.0042 10.541302
8.8459454 63.314499 10.887785
1.5267271 60.222221 10.182448
18.870062 61.350105 11.525887
39.617737 33.6992 12.963273
38.517078 -9.98316 12.87117
77.047386 -16.256001 15.541214
36.092945 36.431198 12.676698
46.15086 54.450905 13.357362
1.5347923 55.575298 10.221362
70.897598 41.652699 15.068275
40.617252 -28.6178 12.937733
13.658265 58.880798 11.035636
7.0864758 62.958073 10.53781
17.417847 58.303802 11.293319
71.217232 34.799599 15.038798
3.7934568 54.739143 10.252919
37.771351 53.705296 12.669159
2.1366119 61.627102 10.151211
75.300323 -10.9306 15.266105
1.9381419 56.877945 10.105765
1.1909615 54.0849 10.080203
6.5517025 55.319786 10.44185
70.383934 11.6329 14.913647
2.3465154 52.859905 10.155624
36.731628 -13.7692 12.554382
8.5647087 58.188004 10.56454
45.3913 13.5746 13.138183
49.249886 24.820499 13.40781
26.980438 56.578697 11.581209
46.994514 15.8347 13.20107
42.273556 -0.026288999 12.87085
41.955078 53.4534 12.847847
1.7122341 53.268795 9.9944363
3.2636921 62.109234 9.9887705
7.4883561 56.929096 10.377321
40.869236 -3.6776302 12.708763
1.9921319 55.716087 9.8990011
15.033896 61.954601 10.883935
49.428913 54.781601 13.287606
57.38763 -36.712299 13.843452
2.4403541 54.789436 9.8949413
39.363022 -7.8016601 12.560313
10.404326 59.215099 10.512538
22.476351 58.923199 11.322233
47.95359 18.747101 13.072969
21.784836 57.141701 11.235251
24.267179 57.988602 11.394409
64.543404 -34.057598 14.202659
69.526672 45.5798 14.52896
2.354948 54.781693 9.6522865
41.263351 -3.5002201 12.52165
25.965385 56.972 11.447902
40.852627 5.7539401 12.476158
18.438829 59.634701 10.902036
41.462742 2.1399 12.500087
24.56707 54.144211 11.131684
4.1424494 54.363899 9.8294973
39.612598 -7.9591999 12.278366
9.9783268 62.338894 10.025503
48.900906 21.8512 12.920932
46.207394 -34.438129 12.189347
14.452868 60.369701 10.502806
71.10009 -31.664602 14.463316
38.853241 -9.7305098 12.208265
39.873203 -5.7716298 12.257314
53.469353 54.814999 13.201526
40.899227 3.9409204 12.298537
1.6028141 55.803799 9.5037775
23.753344 56.376301 11.034359
72.685722 -0.69036603 14.406476
41.084171 8.1876602 12.188209
7.6833892 57.569599 9.8463526
41.420601 -3.2305799 12.195285
8.8420639 59.064899 9.9119778
37.297504 -21.9132 11.884975
11.065409 60.767395 10.041294
2.9947705 54.3741 9.4598284
48.771828 -36.7878 12.625056
2.2164328 61.020496 9.3557816
40.148743 -5.8597298 12.002514
1.9126698 57.359497 9.3267212
55.985172 -36.954498 13.019666
63.15604 -34.225899 13.520049
47.601643 28.009354 12.417144
58.427837 54.185902 13.171337
6.8243055 55.9245 9.5582228
66.621391 50.313499 13.737691
25.495255 55.307301 10.851354
6.1207299 55.279495 9.4755316
49.122013 24.666901 12.478327
7.0650196 62.112553 9.4402151
9.2555819 60.810799 9.5984392
29.836523 54.101799 11.034913
39.692371 -7.4270201 11.682249
7.6162267 58.332401 9.4050922
3.1269975 61.368702 9.0894709
63.037983 53.282703 13.278606
70.951096 16.586 13.799897
4.3486695 54.412399 9.1421375
26.760038 51.817505 10.700744
4.6770835 61.725761 9.0920839
2.2988913 60.167824 8.9743528
40.592964 -5.2252898 11.614947
2.1565418 57.5709 8.925786
1.6795585 56.069099 8.8677425
2.0814357 55.375099 8.839386
27.190809 54.309002 10.559999
33.313477 52.6926 10.984962
6.5080276 60.720894 8.8497581
3.167628 54.543465 8.8284874
77.904243 -25.089298 14.050725
43.301281 -30.832699 11.62329
74.065514 -3.3388402 13.759439
61.347095 -34.685989 12.363331
29.149841 48.598 10.50462
27.22216 53.662102 10.362496
3.2898476 60.220284 8.5951481
37.904594 52.047199 11.056194
42.350925 12.2371 11.324279
6.1148109 55.746502 8.756237
6.2636204 58.789104 8.7395067
6.7608562 56.547504 8.7527752
4.9324951 60.596081 8.5815945
46.136227 53.6404 11.4937
3.0553789 57.072521 8.3489008
43.784035 14.898099 11.309662
