# .PCD v0.7 - Point Cloud Data file format
VERSION 0.7
FIELDS x y z
SIZE 4 4 4
TYPE F F F
COUNT 1 1 1
WIDTH 1525
HEIGHT 1
VIEWPOINT 0 0 0 1 0 0 0
POINTS 1525
DATA ascii
-16.11132 102.67519 -12.469681
-100.67416 46.987022 42.184414
-97.588501 84.075089 40.199905
-91.582451 110.94237 36.037666
-80.914589 -16.583019 29.124649
-102.44141 -6.8781614 43.462513
-78.393936 -23.018665 27.916592
-98.203323 -29.356005 41.262127
-97.315521 -8.6644096 40.05735
-24.45845 113.6454 -8.2361507
-29.065388 -36.617603 -5.7132893
-99.688614 42.263233 41.716667
-99.62796 81.343971 41.446381
-118.7604 -44.115047 55.471363
-106.57792 113.52189 46.524174
-23.695515 105.54033 -9.1733866
-81.457558 -36.936909 31.556908
-76.640289 -38.021706 27.420536
-87.858421 -29.359659 34.884037
-33.496109 119.24323 -2.0337787
-101.74051 79.722733 43.256588
-25.734537 -43.864449 -7.1921496
-34.909512 117.19884 -1.8255693
-49.150299 118.06875 8.3665009
-76.085945 -29.459173 26.747349
-115.12163 -43.551445 51.546173
-41.400784 117.24794 2.6658285
-143.3642 108.51209 71.547112
-26.88028 119.14459 -6.3556123
-21.424883 115.05255 -9.7936153
-23.05995 -36.268433 -10.975657
-12.347651 108.02636 -15.957351
-97.973343 32.320683 41.654854
-11.05683 104.40386 -15.4282
-142.2475 24.598879 70.713982
-140.17099 -22.339233 70.243523
-34.514915 109.17245 -2.4775941
-41.445404 109.68336 3.4682322
-63.022118 -46.138714 17.560524
-132.287 115.13476 64.302025
-66.02594 -45.268246 19.622055
-19.132219 116.8459 -11.45472
-30.33709 108.57984 -4.3494496
-67.519585 -47.589584 20.676004
-69.237335 -42.586773 21.767601
-73.7342 117.9648 25.184334
-70.406319 -45.111572 22.682232
-137.74998 113.563 68.028542
-25.981731 117.3321 -6.8727956
-63.04826 -44.556179 17.772312
-40.27961 119.56081 2.8823488
-93.793304 -29.225039 39.587326
-18.225187 -38.998917 -7.7037773
-69.840942 120.67584 22.432449
-15.181608 -43.248253 -12.650342
-56.252834 118.68204 13.789702
-152.54213 65.001404 78.291122
-63.730217 -48.739376 18.732506
-125.89116 -42.52787 60.641445
-85.985008 -31.104052 34.920357
-66.033012 106.10963 19.951679
-100.85478 -5.6765132 44.497292
-77.231285 -21.62277 28.242088
-102.65469 57.74139 45.503025
-84.568527 -33.866085 33.329559
-81.869064 -12.739161 30.906649
-50.050217 118.55447 9.8717985
-67.911377 -40.078156 21.377604
-73.065308 -39.14386 25.277452
-62.977142 106.5158 18.804983
-9.0443354 99.632812 -15.514668
-100.78411 -3.755208 44.537006
-7.859448 100.56856 -14.522066
-84.235062 -10.44874 32.733974
-141.63458 9.4358788 71.386276
-30.984589 -41.467529 -1.7359809
-88.481567 -8.9218292 35.809158
-23.966356 -43.669403 -7.2667093
-101.3587 1.0839933 44.141258
-14.591685 -42.786331 -11.792184
-38.803814 -43.045979 1.9919131
-107.9642 -44.126358 48.688175
-97.412849 25.090115 41.805172
-65.626328 -42.368786 20.262991
-36.860546 -44.125629 0.81006157
-94.331017 86.729034 40.159313
-39.29882 -45.849232 2.7558093
-91.268867 110.88474 37.805462
-28.081001 -45.36235 -3.7768209
-13.189669 115.26982 -12.742194
-67.015053 -49.382481 21.483067
-154.68524 71.411003 80.351723
-99.386002 7.8515372 43.075222
-70.207268 -37.092766 23.556263
-25.115231 -32.390266 -6.4785733
-29.584185 -44.079517 -3.1886921
-29.84074 -36.270691 -2.6670573
-25.70623 119.87708 -5.9015446
-74.897537 117.25652 27.496452
-70.651825 -46.847546 23.770367
-24.872711 118.5507 -6.03965
-96.343864 110.94096 41.6535
-68.114708 -36.092186 23.014769
-75.345459 -43.292095 28.889093
-97.806503 15.505309 42.212349
-142.86618 -9.2910757 75.88427
-73.073669 -43.403111 26.047127
-38.723095 109.36382 2.977473
-141.39433 -1.2167801 72.148872
-22.853949 105.15604 -8.1292105
-119.38833 117.58736 57.447803
-34.109032 108.06752 0.13353582
-86.738503 89.245537 35.818398
-83.450256 91.434547 32.878399
-36.440331 -47.397598 1.6010761
-89.423698 88.052734 37.81501
-132.13612 -42.164253 66.414253
-99.819099 -38.963051 44.584408
-59.133961 -46.075302 16.562962
-37.451393 -39.356106 2.6575158
-59.614223 -43.931946 16.915922
-38.258579 119.42912 2.718642
-128.61967 -43.187328 63.699852
-144.30019 45.234356 76.118004
-94.441765 -32.330467 42.76305
-36.301685 -39.953609 1.8544228
-69.64328 120.67268 23.918123
-104.94868 114.68732 48.106815
-54.450779 118.08904 14.122978
-59.829453 119.13725 17.480848
-139.9724 -31.286957 74.525963
-29.358227 108.04316 -3.3608019
-98.652733 82.123207 43.049408
-15.590026 116.77784 -11.732932
-31.376081 -43.880798 -1.4543425
-155.01245 79.493797 81.38311
-24.876709 115.429 -6.3595705
-14.741672 115.96211 -12.417092
-104.55012 74.166107 47.673107
-66.924995 121.02556 22.121878
-46.837795 117.89723 9.0723963
-149.20905 60.534004 77.595924
-68.308609 104.27956 22.522432
-22.976528 114.53093 -6.7508154
-33.369541 -44.074692 -0.061323032
-65.126472 106.17831 21.790396
-28.399532 119.475 -4.2267575
-40.130131 -42.299141 4.8861809
-116.75296 -46.397278 57.204914
-28.552223 -33.112553 -3.0088606
-51.991501 109.21335 12.995288
-98.866821 81.813805 46.96484
-145.55406 51.222385 76.861183
-112.00558 116.85387 53.117027
-41.531643 -44.528088 5.7316098
-17.131479 103.27802 -9.5456467
-70.330795 -28.821899 25.566252
-141.8382 -14.38 72.899361
-101.01061 -42.832066 46.206093
-34.749008 -42.758224 0.9531098
-32.234303 -46.305244 -0.29743978
-154.41989 86.624199 81.526588
-80.498375 114.38307 31.662594
-142.92538 29.449163 74.146187
-123.31291 -45.267479 61.552029
-28.127821 -33.51907 -3.6476488
-56.192829 -44.619179 15.3856
-39.029083 -39.105099 5.0970645
-131.23439 116.62399 66.01973
-38.844788 -48.123272 4.082386
-147.74489 57.309608 78.733719
-30.902966 -39.374088 -0.70508516
-69.67791 -49.245457 25.842819
-90.566895 110.45115 39.131863
-139.96613 -26.152306 72.676224
-150.05226 101.74564 79.433678
-142.15466 110.14901 73.594353
-106.14949 71.013519 50.042274
-37.503464 109.82989 4.3603463
-23.409985 -45.463791 -5.6760635
-95.97184 -7.0989199 42.528679
-55.141964 -47.54678 15.305087
-78.236664 -14.543483 30.373413
-42.068802 -45.973785 6.4090452
-23.74015 -33.405067 -6.4759712
-79.799515 -11.484292 31.728184
-153.47577 92.939774 81.718437
-32.039253 118.11404 0.50924981
-65.675209 120.21555 22.570099
-91.902168 88.674568 40.072704
-26.435352 -32.597748 -2.7184415
-55.904327 -49.054623 17.065598
-64.96611 -51.62463 23.815008
-122.91435 118.22462 61.328323
-11.10421 106.75063 -13.887606
-136.64871 114.90501 70.163765
-25.704807 119.08415 -4.4979129
-25.823494 -46.133289 -4.051785
-74.94838 -21.681139 28.509193
-104.66271 -45.2038 48.683865
-44.238819 -42.368824 8.1558676
-82.872261 -8.6511984 34.25658
-136.04951 -42.792976 70.70713
-142.76794 21.4638 74.444794
-138.05556 -33.793736 71.733704
-24.096003 115.24851 -4.7281756
-58.871307 117.51493 18.325006
-21.701715 105.32882 -7.1811538
-128.35266 -45.989647 65.006607
-28.51687 108.16474 -2.336607
-54.708561 108.75834 15.074532
-87.445969 -7.6106195 37.785694
-138.19565 -40.649532 73.002754
-42.383488 -47.440567 7.6230335
-56.192707 -42.302147 16.324276
-18.404757 103.9951 -7.9288559
-142.60539 -17.728701 76.608711
-63.811836 -42.406662 19.478752
-32.401627 -40.676552 0.87935179
-65.651299 -33.976471 24.672752
-101.26311 114.39204 48.463833
-68.592506 120.45157 24.740456
-72.60701 116.39473 27.879025
-79.933388 113.20203 32.630814
-64.242027 -38.377705 21.931906
-68.246979 104.1164 24.089739
-96.151505 41.675217 43.108624
-90.17141 -30.409319 40.18713
-7.9897747 101.69086 -12.941791
-119.46202 -47.326317 60.39082
-68.109467 119.40096 25.423328
-33.491741 108.78962 2.2860005
-142.6711 13.504704 75.082748
-20.0345 115.12366 -7.2308211
-96.874802 46.837681 44.067352
-143.45837 36.868801 75.549286
-45.975822 114.7561 10.815253
-93.37133 110.39754 42.035885
-35.342712 -38.911957 3.3376741
-92.412697 -30.917391 41.602154
-72.920258 114.38065 28.258867
-46.445408 -40.903515 10.84629
-82.369843 92.484222 34.706387
-58.545135 107.75082 19.084476
-53.100719 114.72234 15.606898
-96.550377 84.617935 44.486763
-17.158726 117.14417 -8.7322702
-94.383759 2.8911769 44.936672
-93.871002 87.317398 42.292046
-35.61277 -48.786369 2.959759
-36.317028 -37.328339 5.5114717
-94.208099 29.219831 42.858761
-85.862228 -30.557409 38.647305
-55.079559 -40.798164 16.788685
-87.581146 110.33395 38.498947
-79.252396 111.10011 32.74551
-21.907457 -44.810558 -5.2446427
-28.59333 -34.057762 -1.0021117
-18.719 -37.825966 -7.3764195
-107.52564 -46.715046 51.95274
-49.791576 110.20641 13.008169
-27.105125 117.47951 -1.2881747
-16.059055 -40.370472 -7.4292274
-31.367104 -47.938007 1.5348554
-41.8978 -39.647064 7.797894
-97.92981 52.316952 45.714764
-28.929546 -35.978012 -0.54320627
-34.070362 -40.80912 1.9786695
-108.75742 117.09885 53.35976
-54.226974 109.58627 16.218918
-59.829647 -50.782803 20.073368
-89.191223 89.655998 40.337555
-64.672974 117.85925 23.264975
-93.575089 18.62641 43.132954
-142.76335 -2.3587484 76.198769
-15.609741 104.00972 -8.9876156
-146.14331 105.92987 80.94899
-61.731445 -39.483902 21.693377
-95.667564 -38.717552 45.368763
-142.68277 5.0561342 76.012199
-24.591913 115.93104 -2.0372255
-21.062744 112.96333 -5.0718894
-123.19649 -48.509796 64.252998
-34.839001 116.562 3.0546319
-85.870117 109.5519 38.131092
-116.1835 119.08955 59.464996
-101.31641 78.756264 45.958958
-130.23752 -52.389313 69.4254
-79.10099 -40.184021 32.606049
-56.158176 112.60934 18.866961
-151.39206 98.387222 82.584366
-26.923616 108.47064 -1.91618
-66.908333 116.39963 25.710369
-19.491669 106.16991 -6.7525053
-72.711716 -20.907812 29.835867
-65.708855 106.62604 24.141981
-51.259369 111.90052 14.802165
-12.242828 -43.547222 -8.9898167
-99.544128 56.98632 47.386105
-76.501709 -13.372335 31.597033
-67.790665 116.21434 26.498117
-28.658455 109.09019 0.0031652565
-75.811127 111.13099 31.206184
-11.503237 -42.577332 -7.7294269
-70.804893 -24.726223 27.864206
-33.92503 -37.704937 3.5916409
-86.262154 107.839 39.295326
-130.00201 117.71402 68.089409
-70.903236 113.67028 28.006767
-58.058262 -39.794319 19.387342
-11.727432 116.2531 -10.490104
-83.115234 -35.60527 35.783035
-22.497345 -33.022556 -2.7429514
-78.257843 -9.9913435 33.107796
-33.932037 111.72969 3.6678388
-41.235554 -48.730553 9.1101341
-37.948082 112.21704 5.9883423
-22.840384 -46.458614 -2.4909036
-20.710169 -44.859837 -3.8001518
-31.503235 115.45737 1.752534
-36.677471 114.12434 5.1304731
-86.915703 90.507088 39.647755
-18.254038 114.77859 -6.5009232
-14.820938 117.87037 -9.6479006
-40.443161 -38.614384 8.2438755
-74.715126 108.40309 30.984476
-54.099922 111.00507 17.162565
-92.417122 109.83672 42.893921
-64.495903 116.20356 24.538927
-84.404617 -31.757864 37.40815
-31.242373 110.26048 2.6213291
-137.26103 -48.848526 73.489037
-133.94887 -50.894466 71.246307
-36.425709 -49.324219 4.9144187
-101.67938 61.874275 49.295876
-26.882809 -46.74527 -1.1507303
-56.99762 108.67086 19.706215
-79.804726 -8.0776634 35.258507
-24.071941 113.93318 -2.6704826
-69.735123 111.82262 27.808262
-122.69518 119.14689 63.866016
-80.510849 109.00563 35.007027
-142.08954 -38.224285 78.658836
-25.450796 109.0602 -2.1625326
-83.308533 92.531715 37.686611
-77.738403 105.46625 33.667011
-125.07042 -49.959778 66.139145
-19.046192 108.10667 -5.9097171
-101.78828 -45.786598 49.401001
-143.3604 -2.8310573 78.250183
-90.878517 89.963997 42.092453
-52.137611 -49.395035 16.549559
-140.35825 111.56783 76.063942
-15.094403 105.13046 -7.1951661
-25.885906 -32.433022 -0.5333485
-60.105701 -39.310867 21.860622
-135.58427 115.67771 72.349403
-144.2616 39.740829 78.42009
-29.739973 -38.655487 1.641922
-21.579258 110.79504 -4.1854663
-31.194075 -39.977779 2.9043324
-68.937164 -49.546822 28.233156
-24.279295 -32.984818 -1.9682624
-141.77478 -46.69183 78.32782
-91.287064 90.971542 45.649933
-65.685356 107.57489 25.40428
-57.214016 111.3476 20.938303
-33.508533 -39.399998 4.4423985
-65.83123 111.30817 26.389208
-62.171665 -37.668465 23.974152
-84.873436 106.70988 39.468662
-89.474297 107.72755 42.665073
-93.376587 -5.679709 44.995449
-67.103127 109.32664 27.251841
-92.729507 -6.5283661 43.739624
-93.709877 -37.179615 45.325325
-19.51881 -34.014957 -1.3533101
-92.959061 -3.9168346 45.654205
-104.2091 69.738213 52.353466
-89.933968 -31.838463 42.300087
-147.3569 54.432396 80.840767
-111.88085 -48.115135 56.925476
-77.204628 -40.752991 34.286385
-83.301651 -7.0357099 37.666077
-118.08476 -50.163345 62.864025
-96.796783 111.85336 46.771679
-64.024361 110.01412 25.160072
-7.271821 101.73845 -11.742046
-15.862256 116.909 -7.0510402
-145.65106 48.45248 80.504143
-69.936333 -23.238911 29.85157
-61.000835 109.07659 23.36437
-55.026844 -39.245068 19.373888
-10.999282 114.08794 -10.81937
-36.294849 -37.992046 6.5928812
-66.403534 108.01112 26.55072
-73.097107 -17.520853 31.906191
-72.829239 107.20217 31.177921
-81.072586 102.08232 37.251431
-80.500053 95.874275 37.257851
-109.24323 117.9039 56.080372
-59.947472 -51.705032 23.379772
-26.118399 112.13619 0.032368284
-74.315712 -13.511097 33.006138
-142.32614 -56.488304 79.807838
-17.746822 110.44558 -5.6051054
-143.3503 -44.303242 80.310326
-61.78949 110.48567 24.528172
-26.831766 114.91798 0.84615266
-10.17126 114.92555 -10.950747
-143.37148 -19.808605 80.600006
-106.33554 -48.048912 54.287689
-143.46767 31.5702 78.834908
-83.4851 105.22186 38.723186
-56.450005 109.89735 20.217236
-14.420118 117.94093 -8.3689594
-28.672968 112.5686 2.3498757
-40.256737 -39.228325 9.8339586
-75.980316 -10.221004 34.282867
-80.89698 -35.336166 37.775311
-96.670052 -43.128201 47.545139
-14.430018 106.23392 -7.2723584
-15.943121 107.87055 -5.8294892
-26.638489 -46.598911 0.41535461
-34.250599 -49.273529 5.4692097
-75.440292 101.22464 33.883373
-59.141777 -39.353195 23.6189
-49.083385 -39.566582 15.791275
-104.18794 73.462654 53.495255
-64.271133 -33.892376 26.633728
-83.345207 -31.183445 39.036095
-10.481233 115.73161 -9.7251301
-102.25336 115.18519 51.813168
-142.55585 9.80021 79.078041
-63.26936 -51.906929 26.002863
-70.579247 -46.209412 30.926315
-141.35402 -50.040031 78.009811
-99.487045 80.485657 49.778538
-123.04577 119.28153 66.260445
-152.31306 65.978699 85.465591
-143.11205 2.2135692 79.996017
-15.612707 111.75131 -5.7380762
-153.67195 71.988197 86.415939
-92.379532 -37.139462 45.713818
-26.536411 -36.187538 2.8900511
-88.637779 93.301613 43.990215
-70.966537 -21.022926 31.99099
-9.489975 111.25533 -9.73207
-143.15509 26.6124 79.43779
-51.986412 -49.343735 17.874937
-144.08 -8.2068558 81.205086
-39.19109 -48.33424 10.173812
-87.33886 -32.37999 42.976368
-77.398598 102.0249 35.461376
-94.313171 8.2752428 44.173149
-11.98984 -42.110603 -5.9051843
-144.0762 -24.256773 83.312866
-23.70569 -32.078144 0.35088298
-47.439072 -41.636131 15.379676
-40.25486 -41.587059 10.608824
-36.800411 -39.495277 8.4360867
-85.025803 -29.913038 41.082615
-89.265862 16.755718 45.072941
-128.64514 -56.358185 70.413063
-143.43649 -34.482433 82.031685
-13.616706 114.9813 -7.3429365
-153.71556 79.849998 86.955719
-96.640411 111.85258 48.748817
-36.295135 -48.712639 8.6348295
-85.999947 93.551926 42.251041
-55.395905 -40.588734 21.327124
-92.777573 108.20012 46.538795
-89.802727 105.16457 45.115227
-86.300514 -30.4485 41.590229
-145.98592 -119.75475 81.952164
-32.271507 -40.06361 4.3449459
-33.623535 -38.972004 6.9893031
-83.633598 100.51889 40.282551
-144.9332 -117.11785 81.400429
-7.6419673 105.36129 -10.507128
-13.993595 115.12009 -6.793509
-19.229794 -34.089378 -0.40661064
-144.45259 -113.56731 81.677994
-152.89893 86.713097 86.7519
-67.039291 -47.977905 31.084923
-13.788119 109.50684 -6.6042218
-54.482658 -49.424522 21.089327
-51.061024 -48.624207 18.49431
-145.22926 -112.84612 82.442268
-110.20332 -49.133121 58.164871
-82.805634 96.107788 40.420403
-67.709045 -26.470299 30.98188
-51.488514 -44.415203 19.849876
-28.922789 -40.787548 4.4289775
-149.86676 61.884201 84.877373
-14.009386 110.06973 -6.1581478
-136.5639 -61.314377 76.86097
-6.7356591 103.68129 -10.429979
-76.188835 -38.603493 35.867489
-27.434385 -46.210476 2.8365893
-8.8658037 112.24228 -9.9824324
-118.55884 119.46859 64.574829
-28.244181 -38.778511 3.2619979
-36.919579 -41.408203 8.9830198
-119.79018 -52.703907 65.56398
-93.017761 90.009712 49.051823
-142.53275 21.5564 80.088646
-31.605505 -47.77541 6.3398237
-91.924225 41.435093 45.575287
-152.13678 91.594093 86.419258
-89.85688 28.895021 44.91996
-22.787737 -45.434067 0.26978332
-98.699646 -45.521557 50.871239
-145.94453 -126.50471 83.414528
-142.70915 108.58415 81.571594
-20.221869 -32.211155 0.64508122
-146.65614 -113.40441 83.945045
-47.161263 -44.372562 16.711338
-94.404099 -42.194538 48.951027
-92.877113 47.501907 47.005447
-10.436765 110.62766 -7.7598023
-8.4555464 112.01022 -9.2869492
-81.735207 -29.029997 41.311432
-81.963951 98.739235 39.863934
-81.337143 -6.9644265 39.237125
-11.483476 -42.852798 -6.1657281
-25.943468 -34.221931 2.9532959
-77.529533 -8.5929203 36.705051
-57.570484 -50.180386 24.702206
-89.174248 21.653881 44.914509
-145.95827 -56.825588 84.173981
-96.077606 85.711472 49.767021
-70.128738 -43.787594 32.35416
-30.892534 -42.007565 5.9593015
-115.47059 -51.032516 62.805458
-106.30426 117.00349 57.035835
-147.12636 -113.92142 85.01223
-58.465691 -41.501553 25.64712
-94.545105 52.487808 48.430767
-44.361027 -46.405308 15.009485
-131.89964 -105.70279 73.922707
-53.643753 -47.104095 21.569372
-72.329895 -40.703629 33.885532
-59.668701 -39.406887 25.237236
-88.675247 104.42318 45.257648
-145.62456 -123.35358 83.754349
-91.177521 -39.42886 47.100769
-7.5877109 106.67519 -9.1265736
-148.27695 58.642723 85.112762
-19.622164 -43.761093 -1.2723769
-38.498508 -44.057655 10.947107
-38.270081 -46.216339 11.252022
-145.03792 -115.45659 83.34304
-86.113899 96.344269 43.748688
-128.55772 -60.206032 72.077156
-134.20406 -105.75995 75.558197
-85.663765 -31.286844 43.155357
-87.702087 -6.6872964 46.509113
-113.46394 119.02885 62.896038
-72.073875 -18.651415 34.456146
-88.536736 102.06388 46.192806
-132.15143 -107.12102 74.316887
-20.170128 -44.39135 -0.37009504
-95.831383 56.253105 50.557274
-63.561852 -35.917068 28.48064
-129.88452 -107.15945 73.827179
-142.45589 9.9106274 82.284515
-127.79984 118.85549 71.772469
-134.15677 -101.80934 76.28907
-148.56255 102.076 85.489403
-29.175468 -44.487736 5.3277273
-143.63301 -63.584721 83.114212
-136.47186 -91.011658 77.354095
-132.6629 -108.09205 75.216385
-101.51842 114.5696 54.01025
-146.11694 -121.06805 83.686043
-130.41795 -91.786751 73.437477
-83.691391 -28.90707 42.353786
-133.66907 -108.68719 76.117928
-145.23007 -8.4338789 85.378479
-133.13567 -103.70634 75.200233
-146.89163 -114.46898 86.302536
-148.09363 101.09435 88.391418
-143.67178 -0.99113476 82.314911
-135.7317 -86.994705 77.107872
-133.4924 -65.988083 76.307663
-135.87401 -104.48276 77.374634
-99.587639 62.497608 52.479774
-34.968918 -47.560009 9.2730255
-35.108746 -44.393738 10.006285
-146.14384 -53.719296 84.842834
-34.068645 -42.176811 9.2032166
-74.006935 -11.878015 36.18071
-131.44131 -103.14769 74.395676
-26.170874 -39.057144 3.8779461
-88.232338 98.565735 46.524242
-54.202007 -44.677219 22.400867
-25.544661 -42.866024 3.3325865
-89.524841 2.034935 46.171974
-121.28106 120.14637 68.498352
-62.611115 -50.763004 28.12339
-91.149597 104.25388 48.440182
-121.92339 -59.06366 68.838234
-144.85936 -122.7501 84.796585
-140.52267 109.91287 83.259529
-31.64254 -45.385693 7.96487
-145.52345 -118.84885 84.756805
-61.056484 -39.218285 26.376612
-137.27258 -102.78776 79.541389
-23.976715 -32.654907 2.2231495
-123.53127 -91.29213 69.98494
-117.87819 -54.03149 65.493385
-133.60875 116.50773 76.319778
-146.71709 51.309185 85.021614
-142.18684 16.6626 81.871162
-129.44165 -85.326622 73.346481
-109.3391 117.90146 61.132973
-144.983 42.799538 83.697502
-96.116188 -44.323971 52.098309
-139.43527 -95.262817 80.175323
-100.69763 70.054817 57.072975
-32.631752 -40.642311 7.901958
-144.12469 -123.6374 84.361069
-20.664923 -43.061504 1.5790837
-139.87506 -66.641197 80.350136
-69.106339 -40.442158 32.679062
-24.712603 -32.426472 2.5407383
-67.025803 -29.536865 31.912498
-133.17818 -104.0484 76.198303
-96.512047 110.2002 52.04652
-144.9453 -70.206322 84.685501
-34.524361 -45.992176 9.7939386
-70.409637 -22.658752 34.061268
-99.70546 80.442047 54.421097
-131.4695 -100.806 74.721527
-140.19627 -104.08506 81.507622
-131.34862 -107.10279 75.545692
-64.314964 -48.97884 29.767332
-19.267225 -32.581234 -0.58208472
-129.9758 -107.59875 75.750885
-103.11974 -47.811901 55.90173
-66.95562 -38.044262 31.653723
-89.49984 94.640541 47.049244
-145.21509 105.64219 89.051392
-64.644417 -36.807598 29.818148
-136.20943 -106.33169 78.494186
-124.48181 -85.50312 70.75798
-129.17332 -107.9258 74.792892
-81.793411 -27.003178 42.302074
-140.80911 -86.961662 81.331566
-135.88988 -82.318573 78.555939
-126.20352 -102.17645 73.126854
-126.45895 -62.492378 72.009811
-75.903694 -9.6399164 38.476341
-144.99568 -68.398834 84.998337
-142.65184 -109.3759 84.412659
-143.90163 36.326599 83.592186
-142.24139 -98.816048 83.214035
-128.36984 -104.18633 74.303757
-129.95811 -109.18925 75.303787
-112.89009 -51.536736 62.790688
-130.43803 -103.40791 75.490334
-145.40787 -14.162934 86.872192
-74.126457 -33.091328 37.275749
-145.99115 -42.272018 85.932899
-117.22162 119.93217 66.541916
-101.68591 76.198174 58.719193
-60.887508 -49.283138 28.637644
-108.85564 -50.032684 60.413197
-60.353565 -41.98262 27.265846
-123.4134 -98.100548 70.80323
-100.08298 79.645981 56.829277
-19.266985 -41.935783 0.68075627
-11.421921 -41.717812 -3.9045632
-80.016853 -7.3154049 40.39024
-56.468842 -48.007744 24.980726
-126.21099 -81.961075 72.309647
-88.146484 10.783719 46.184151
-142.58482 -75.72525 83.657951
-56.536861 -45.392578 25.161631
-139.80389 -105.88087 82.153427
-72.176003 -30.394426 36.531822
-92.677444 -42.913223 49.616432
-24.019232 -36.391499 3.8951969
-62.042473 -41.079762 28.948763
-121.98492 -90.551147 69.656708
-144.32755 -108.6303 84.755661
-17.079674 -35.657513 -0.35295454
-65.824722 -45.369827 31.713297
-64.118446 -42.517109 30.888828
-64.248535 -47.075008 30.593195
-143.17014 31.6056 83.755699
-139.97679 -84.00042 82.085205
-141.93106 108.83443 87.176216
-121.88625 -86.940071 69.774925
-62.963196 -44.226795 29.92848
-136.33871 -106.78068 79.945221
-22.58754 -34.763462 2.6805444
-102.38654 114.44026 57.059631
-73.853104 -13.021781 38.834118
-142.18222 -103.27366 83.803635
-130.18005 -110.242 76.337898
-131.3858 -68.085503 76.099342
-22.874233 -35.013577 3.4003932
-99.070656 -46.117813 57.159107
-135.97713 -72.78624 79.797562
-146.17825 -33.266556 87.188034
-143.44365 -110.38715 85.250198
-142.98891 3.21381 84.040443
-147.30298 -84.00103 87.1605
-115.87187 -55.12569 65.932968
-146.80779 -87.709976 86.704247
-148.08232 -66.501289 87.977989
-128.40712 -79.658028 74.504677
-22.369776 -41.477684 3.0318227
-72.643654 -19.604649 37.318977
-145.88358 -108.59178 86.872917
-147.13481 -77.893669 87.206841
-83.252449 -29.668213 43.991577
-143.9505 -118.0252 86.452202
-87.450119 -37.167599 46.720303
-143.54572 -98.933838 84.624954
-141.7047 -76.803764 83.281136
-148.73279 -89.13588 88.257195
-96.10891 86.515083 53.754612
-143.12422 -96.050171 84.284706
-146.38083 -98.196869 86.694016
-98.994102 111.79202 55.631432
-146.18744 -115.2887 87.396599
-59.787464 -46.768692 28.266829
-13.035364 -39.582119 -2.5647473
-78.417175 -25.188976 41.093414
-20.613409 -38.304913 2.3407176
-11.982435 -39.734642 -2.2680616
-114.64672 -96.720749 67.64164
-143.13338 -110.38277 86.857399
-149.56299 -85.194443 89.090218
-71.467537 -24.410309 37.293289
-90.590492 95.307922 50.170044
-145.10802 -86.150909 86.015266
-125.28912 -64.27356 72.892876
-142.83661 -89.196648 84.890762
-16.927395 -34.530087 -0.2914283
-144.79044 -116.12872 88.224487
-150.50612 -49.824528 92.952126
-141.87929 27.06185 85.851357
-80.895782 -23.803473 43.158157
-142.58986 -107.22946 84.606979
-119.74976 -59.502434 69.1912
-149.9402 -91.149574 89.530151
-145.32095 -102.71491 86.785667
-122.43299 -81.844704 71.082916
-138.79456 -106.90815 82.921967
-134.70447 -108.984 79.122406
-142.28806 -118.96038 86.550179
-127.10522 -107.11214 75.40641
-140.84352 -80.855614 83.640434
-145.93889 -23.51362 88.556763
-81.858871 -25.99107 43.795807
-14.405297 -36.770164 -0.37790346
-137.23145 -76.163315 81.440605
-144.11774 -104.97726 85.822952
-88.817703 -40.787601 48.514194
-148.49582 -76.470528 89.092285
-135.32701 -80.073418 80.041862
-83.627975 -34.404408 47.118713
-128.89529 -68.300301 75.612488
-14.893644 -40.840214 -0.87047261
-90.381294 98.354935 51.259068
-17.409842 -38.298183 1.0536351
-76.489021 -21.538481 40.712086
-149.47508 -96.664207 90.146263
-82.612709 -27.750193 44.603443
-86.044479 1.9761013 47.390205
-118.56678 -89.127068 69.255173
-140.48405 -83.680603 84.732849
-17.114048 -34.538536 0.71592361
-77.747131 -8.91008 41.270214
-132.68565 -110.34988 79.382912
-75.328842 -20.237984 40.802494
-143.65237 -120.12865 86.576614
-93.985161 91.361153 53.253014
-90.62178 100.95986 50.794071
-127.10999 -105.56612 76.546707
-145.83913 -109.89899 88.595657
-150.68701 -56.05164 92.694458
-118.68797 -100.28418 70.54908
-115.40193 -92.660706 68.066788
-127.2605 -105.48136 75.080681
-149.66382 -63.766602 89.983391
-130.48186 -78.793663 77.152435
-141.43666 -84.851265 84.740181
-136.98926 113.05599 81.488419
-108.03448 -51.206997 62.700874
-148.51154 -101.62888 90.942688
-142.11314 -108.98223 85.292953
-86.554008 -4.77244 47.566181
-148.6377 -74.948769 89.894142
-103.34406 -48.339382 59.126591
-151.1125 -74.881134 92.972404
-151.40392 -90.119034 91.579498
-126.96123 -78.925484 75.083527
-73.742584 -19.571232 39.179146
-141.61273 16.8291 84.952286
-144.52338 -1.11971 86.92115
-80.965584 -8.0191402 44.171494
-140.71558 21.768587 87.135429
-141.87288 9.8408508 85.817482
-138.53482 -82.277382 83.535255
-121.19602 -82.499054 71.419991
-123.89685 -79.666565 74.039352
-141.76482 -84.944427 85.43856
-137.82048 -109.53168 83.565956
-87.732208 41.630646 48.873745
-85.615509 30.048319 47.783489
-113.53441 -55.094875 66.644066
-74.211403 -15.642577 40.511856
-130.74431 -73.020729 79.262688
-133.43799 -79.061951 80.898727
-150.85492 -82.731972 91.977715
-140.18166 -109.76568 84.971794
-89.18618 47.978786 50.397076
-81.439651 -27.763847 45.256512
-141.81334 -112.52231 86.316185
-80.265366 -20.688311 45.394608
-145.48048 -5.63661 88.188194
-84.578232 20.713053 47.530415
-151.58537 73.349998 92.343842
-142.4268 -111.46132 87.68148
-118.57114 -86.540291 70.506012
-118.88981 -60.329239 70.891052
-149.1777 63.087303 90.809563
-152.5136 -88.479485 93.952026
-150.47974 67.623398 91.715462
-147.43483 -31.864502 91.174965
-123.91141 -106.79467 74.926643
-89.916275 52.250362 53.125332
-75.050728 -17.653784 41.639278
-78.466629 -10.022924 43.988338
-151.25877 80.744003 92.389946
-96.520172 63.808342 58.111198
-124.75203 -65.459061 74.341904
-147.70845 58.68642 89.845665
-95.453362 107.92901 55.424934
-145.15295 -110.95391 89.368858
-114.82304 119.65402 69.833923
-118.909 120.16562 72.40052
-144.67096 43.160358 88.552261
-111.50625 118.82969 67.397766
-150.35634 87.142097 92.091545
-81.760345 -25.340836 46.06316
-127.57912 -78.420868 77.072029
-142.72215 -117.64382 87.636429
-141.55524 -115.68115 86.793251
-100.83706 74.785072 59.341393
-91.627335 -44.963257 54.407925
-151.9875 -71.398277 94.25618
-130.50581 -111.01266 79.538704
-124.51168 119.35786 76.124069
-125.33016 -108.32172 76.043068
-84.590004 -8.0474501 47.90353
-145.84999 -9.4625635 90.062805
-76.653938 -19.55834 42.799953
-136.44537 -83.276833 83.70208
-149.58115 92.536804 91.196022
-92.562782 94.023499 53.44125
-108.57575 -94.084648 65.151344
-107.40086 117.0094 66.655678
-146.57005 -107.11275 90.022247
-113.16982 -89.453728 67.808884
-152.60179 -92.473534 94.490944
-133.28915 -76.503716 81.264435
-120.67283 -63.45155 72.689178
-86.504913 -41.684978 50.361721
-112.16015 -87.131523 68.52916
-129.23636 -89.672203 78.461662
-124.28701 -90.351196 75.141159
-78.583176 -11.946525 45.203854
-131.50191 116.957 80.092201
-142.78848 34.096878 87.676453
-137.12506 -111.76575 85.441444
-128.86185 -92.319603 78.371315
-152.57449 -86.870064 96.02697
-84.073784 11.721904 48.409096
-110.10909 -98.520149 66.284164
-93.196533 104.671 54.374023
-80.824043 -31.668612 47.697491
-125.70213 -109.99177 78.538002
-119.26572 -89.043404 72.070358
-139.40926 -112.29144 87.412903
-123.86639 -88.4478 75.196045
-146.69383 -16.740641 92.402756
-151.52348 -97.534843 94.344818
-106.22883 -51.758984 64.603188
-96.803055 -46.999531 59.585953
-79.632294 -17.165651 45.93961
-116.16253 -104.20789 71.595413
-108.14182 -90.775589 65.273232
-121.10051 -81.084732 73.416222
-83.075287 -7.432724 49.597813
-109.95289 -53.714909 68.462234
-81.065567 -24.64212 47.134907
-116.77867 -82.943489 73.670296
-107.4757 -89.353424 64.566826
-130.2527 -78.881081 84.356232
-123.79713 -92.831902 75.527657
-149.63144 -102.83302 93.60672
-136.18719 -82.289131 84.459969
-103.92857 -92.463303 62.487701
-137.86618 111.9638 85.49984
-141.09688 -113.11385 87.867752
-101.49566 -97.801979 60.524361
-152.17265 -63.516285 94.953522
-128.26582 -74.151459 79.301407
-145.48726 -109.16106 90.877106
-118.69661 -83.235023 73.319153
-87.426117 -43.978905 53.314293
-99.534508 -90.090965 60.103306
-108.63755 -88.374146 66.265594
-100.51485 -88.753494 61.562778
-130.82826 -78.576942 82.827827
-115.11154 -88.052605 70.988907
-83.096886 -11.192585 49.157093
-151.97636 -57.830608 95.446259
-101.64025 -88.490562 61.61504
-82.02372 -20.950872 48.185452
-133.77325 -82.09166 83.436691
-118.2252 -90.718658 71.450356
-143.13075 -112.01247 89.599785
-83.063522 3.1674528 49.204353
-147.07266 -22.533695 94.274841
-118.01116 -86.80024 73.032066
-128.39606 -87.759903 79.383774
-152.95549 -92.153198 96.583397
-99.941788 -96.432663 60.042725
-108.60984 -100.27946 66.42688
-103.17933 -97.763359 62.761555
-80.593079 -34.725094 48.889137
-122.40011 -86.065041 76.474571
-99.813438 -94.273499 60.890675
-154.33212 -89.821899 98.443573
-153.4044 -71.346069 97.688141
-95.832916 82.4916 57.637791
-147.54904 -27.246046 96.453705
-91.889862 100.88341 54.944897
-101.24709 -100.59811 61.845406
-81.110847 -16.117897 48.193848
-101.63402 -98.013771 62.206944
-143.7213 1.17092 90.023735
-148.18768 -105.74092 93.577576
-145.02243 -3.3903501 90.959595
-111.07127 -90.107483 67.775009
-96.993683 -88.04982 60.208462
-105.39278 -86.792831 65.069496
-96.331955 77.956764 58.21513
-103.16871 -100.33739 63.481586
-128.44768 -112.09142 83.035324
-97.900902 81.410179 59.283215
-150.93822 -101.42106 95.923454
-101.66695 -89.026039 62.417248
-106.5757 -89.547104 64.676163
-114.10124 -93.794487 71.29702
-151.84752 -54.505486 96.250961
-142.63179 108.84352 89.923882
-118.11871 -65.211525 73.393173
-101.36861 -84.273521 63.782299
-153.51289 -81.868858 97.265129
-110.72394 -103.20393 69.283928
-117.40527 -93.108994 72.70591
-104.17067 -90.52626 64.241074
-108.15605 -87.711449 66.865662
-99.960808 -48.424137 62.656689
-83.022392 -14.4482 49.580051
-144.28627 104.01678 94.790886
-148.27611 -34.047211 94.885765
-141.91692 5.8414302 89.367271
-97.713684 84.868233 59.644531
-99.09684 80.425682 60.689529
-98.105865 -88.416862 60.967129
-98.196342 -87.214363 61.043438
-111.23666 -86.098785 69.552345
-100.0095 -98.523697 61.200905
-108.55245 -92.074959 67.81797
-121.74545 -80.550652 76.741112
-126.04649 -85.658897 79.61998
-141.00462 11.071496 88.985474
-130.19359 -80.915733 82.150276
-101.70938 -98.712906 62.514797
-140.32553 17.302601 88.645355
-97.293274 -96.251625 59.96957
-93.603622 80.993599 57.155724
-102.92583 -87.399216 63.720314
-102.03145 -96.776581 63.686287
-133.57796 -112.39982 84.33699
-143.53839 -110.55983 91.442596
-96.880432 -94.40416 59.745075
-127.69448 -94.733803 80.257591
-104.06786 -97.309441 64.560448
-139.27982 111.42847 88.048119
-99.969627 -101.23253 61.991608
-95.397835 86.601418 59.023907
-93.88781 78.115402 57.51947
-106.72591 -86.627457 66.828842
-124.74055 -74.428207 79.035431
-140.60551 -112.15768 90.043037
-82.626976 -17.43339 50.258671
-133.14618 -81.254875 84.944496
-82.587631 -11.541276 50.344482
-110.12254 -55.705864 70.486237
-130.09122 117.034 82.169281
-85.081978 -41.323101 51.8321
-93.921585 84.489799 57.800198
-97.761566 -90.073471 60.929955
-103.36103 -102.40775 65.275749
-95.200394 -92.45195 59.271938
-93.109261 96.956772 59.553024
-99.105865 77.674156 61.627052
-95.866623 89.715065 60.888832
-83.143257 -37.946144 50.947319
-81.388695 -6.2408748 50.597553
-79.693016 -28.846766 50.000851
-97.233665 -97.917511 60.65855
-99.108147 111.42902 62.9408
-154.22089 -80.265694 99.640137
-100.26919 -86.86731 62.537907
-99.396545 -96.988922 62.398579
-124.83946 -110.8112 80.753403
-96.346977 108.24888 61.685375
-99.51796 -91.784698 62.767269
-133.24275 -85.73288 84.877502
-95.180946 92.18885 60.668831
-94.282555 93.940826 60.512341
-96.044777 -88.265907 61.641014
-96.122002 75.322922 59.883015
-90.675194 59.379368 61.016476
-130.50771 -88.850899 82.961014
-96.733337 -87.686081 60.89119
-132.55258 -84.261093 84.606926
-123.11593 -95.727798 78.009338
-134.78937 114.022 85.915878
-83.681175 36.585018 51.408516
-82.054741 28.460764 50.530899
-132.79062 -87.182358 84.954765
-113.35355 -86.40892 72.551094
-81.02951 -36.986298 51.155712
-136.97513 -113.34019 89.132545
-95.315346 -96.345558 60.740131
-84.976883 43.355778 52.520538
-151.75034 -53.599483 97.99189
-81.19162 21.52857 50.270947
-130.70085 -83.8041 83.407845
-152.90114 -97.871971 99.130463
-146.68582 59.690941 94.448036
-144.58199 49.580402 92.949875
-104.32362 -93.844246 66.531059
-86.08387 47.863194 53.774391
-148.02144 63.873402 95.254555
-97.050163 -90.821503 62.089134
-100.60334 -84.977097 65.839638
-152.91588 -64.99765 99.190285
-88.999557 -44.870804 57.3311
-116.73108 -65.337326 73.873444
-127.50174 -78.890434 81.332893
-154.51749 -89.773972 99.956924
-118.19302 -85.52356 75.349014
-102.76485 -50.364845 65.30658
-140.37305 112.46223 90.592758
-148.24062 74.342888 99.349953
-149.03392 68.600998 96.176605
-80.759918 -24.745689 51.478695
-112.13325 118.61671 71.560341
-149.19823 81.557533 96.212479
-115.13342 -95.284554 73.909248
-91.608795 81.032898 57.591702
-131.07829 -81.173729 84.794701
-93.245842 75.963837 59.341404
-140.93724 32.060772 91.284317
-81.362297 7.9555011 50.931591
-91.863731 78.2873 57.855724
-98.280952 74.819641 62.276974
-97.334442 -85.172684 62.556938
-125.57117 -84.96701 80.621056
-91.956833 -45.518818 58.110619
-141.88039 111.36997 92.239731
-113.79366 -106.78703 74.137939
-128.37439 -80.546837 83.306351
-146.4218 94.192001 96.148109
-137.88759 113.42551 90.124054
-91.885063 85.050903 58.101292
-96.55262 68.578125 61.401848
-78.889969 -32.190895 50.593666
-117.35959 119.18055 75.83783
-155.155 -86.543121 100.91161
-97.201469 -86.699486 62.51852
-95.311569 -87.513306 61.531639
-130.4817 -83.205711 84.983749
-96.989761 -47.102936 63.144753
-136.68774 112.64407 89.5065
-96.43512 74.304497 61.749828
-154.51588 -93.37056 100.87868
-80.222664 -7.4049006 51.955391
-125.25587 -78.050407 81.519318
-95.04187 -87.824707 61.406555
-93.49099 -92.575333 60.348957
-149.32658 -104.36486 97.762131
-104.94623 -85.880989 68.450317
-140.30679 -112.18256 93.338379
-94.090164 103.874 59.968075
-130.39374 -89.864502 84.456848
-94.80584 64.865952 60.9902
-146.06142 -108.09396 95.397781
-122.37673 118.43542 80.0131
-127.30206 -78.548592 83.475235
-120.63946 -73.742828 79.638916
-138.57597 28.627729 93.810539
-93.069008 87.179901 59.471951
-112.8646 -82.971046 73.194008
-94.683556 -88.16375 62.611378
-117.78717 -82.052315 75.769394
-145.55522 -7.7862191 94.976707
-96.474014 -100.17408 62.52581
-101.12795 -83.213837 65.329796
-136.9606 118.67862 89.958244
-99.362549 -83.424889 64.47477
-142.91719 1.6392919 93.101585
-137.90013 119.67429 90.630623
-107.14808 115.90343 69.780479
-151.91637 -49.175285 99.409851
-148.98531 -33.608315 97.487541
-107.21183 -85.609955 70.766823
-146.69731 -14.709939 96.060547
-93.522476 70.244644 60.42194
-140.69843 7.3010187 92.04026
-153.45015 -62.387138 100.71508
-140.72101 114.4889 93.109383
-96.822647 -92.776253 63.375305
-82.3004 -17.333094 53.622768
-128.58801 117.139 83.92041
-104.42181 -85.761299 67.291656
-147.05891 -21.106609 96.559776
-138.05663 23.468855 92.830841
-128.45886 -79.104485 85.090714
-120.27136 -84.719551 79.82634
-95.619362 89.558929 62.519009
-82.919876 -38.971745 53.417503
-79.914383 -2.4100661 52.038696
-138.20656 17.797186 93.00235
-155.25145 -88.101173 102.04886
-138.55357 13.383365 93.557716
-94.059166 -90.360992 63.771282
-99.164085 -102.26262 64.352882
-152.11641 -99.836594 100.10268
-154.37868 -74.587326 101.87031
-116.63283 -108.05505 77.218658
-86.398407 -43.5905 55.958267
-110.29455 -58.371559 72.357658
-131.66154 114.76019 88.32608
-84.434784 -41.532299 54.663399
-92.405258 71.464844 60.964737
-107.82789 -95.794075 70.613098
-114.16609 -65.937157 76.288979
-112.3512 117.9573 73.700081
-91.614479 66.464188 60.309593
-98.175674 -94.078903 64.215157
-126.02661 -79.224846 83.667557
-135.47202 118.32864 90.167076
-141.10985 113.39661 93.942841
-137.83147 -113.25481 93.070518
-128.20955 -77.930603 84.858055
-118.02364 -71.27681 79.317497
-95.218163 90.019173 64.041298
-134.19923 112.77895 90.558067
-89.843506 78.172539 60.490273
-92.582413 75.158333 61.154865
-89.637566 80.735168 60.447083
-112.85209 -85.993668 74.334381
-90.69944 85.072899 59.766041
-121.17358 157.61775 80.972649
-100.13 -49.211246 68.109039
-122.78459 -78.440796 81.998802
-91.547737 87.006775 61.297253
-122.3792 -80.462776 82.536118
-81.265526 -22.161852 54.826332
-99.589874 -84.53756 66.922668
-80.603539 -24.744108 54.448544
-119.75307 157.37155 80.101311
-127.30215 116.34162 85.876877
-97.02169 -85.299889 65.205612
-108.97603 115.67438 73.494194
-102.78962 112.42333 69.314857
-94.786896 92.750168 63.881264
-135.54184 115.38596 91.076012
-97.292221 107.83726 65.626518
-113.0742 117.08681 76.219933
-94.737801 103.2118 63.889767
-83.254456 -39.542049 56.173534
-116.97182 117.36426 78.88665
-93.059044 -88.396309 65.705818
-118.0074 -109.23393 82.521545
-131.75241 134.08182 88.572037
-93.808815 94.986061 63.593681
-94.080292 -85.841301 66.189888
-94.111595 97.430855 63.485386
-78.764633 -29.359701 53.156155
-95.03347 -86.809769 64.391586
-122.04113 117.18338 82.345169
-78.105278 -32.439232 52.628468
-92.023247 66.223778 62.021034
-122.69283 -111.23087 85.37114
-88.289207 -44.066883 59.553177
-85.084839 -42.140575 57.423153
-78.560898 -34.996342 52.980263
-102.88724 -85.144814 69.491165
-133.5087 -113.79333 90.078995
-81.133919 -38.147137 54.715607
-91.062759 -45.03442 61.506687
-95.050758 -91.079056 64.187897
-103.27171 -104.43463 70.541115
-135.1871 -113.76939 92.100906
-145.38834 -107.84865 98.149017
-104.36263 -104.50742 69.49646
-149.76031 -102.56762 101.03423
-96.439072 -102.09213 67.751434
-94.386505 -100.80043 67.291786
-93.46244 -98.947197 65.104431
-152.85944 -96.017693 103.07287
-108.09863 -96.399391 72.918869
-115.23107 -95.81234 77.582283
-120.31324 -95.897697 81.152298
-97.948402 -94.879997 66.091805
-124.42858 -95.166397 83.928146
-95.568733 -93.389549 64.935997
-154.27086 -89.785927 104.05302
-129.48738 -90.063599 87.34034
-92.266708 -87.707962 66.051178
-131.84268 -87.819504 88.929008
-105.76463 -85.632484 72.722191
-132.74217 -85.397003 89.535728
-102.93352 -85.986031 71.883743
-154.37231 -82.853996 104.05486
-100.75073 -84.81926 70.106651
-123.8151 -84.316101 83.514351
-131.74982 -83.337196 88.866379
-128.99492 -82.605904 87.008171
-117.97697 -81.627769 79.75882
-126.79613 -77.771835 86.70063
-152.8472 -63.503941 103.11555
-107.45175 -56.239418 72.958282
-105.27618 -53.045753 71.080215
-151.30109 -49.79348 102.05757
-147.05397 -26.958431 99.167374
-146.11325 -16.67462 98.630745
-81.36586 -17.32168 55.53054
-81.305389 -13.861976 53.229828
-78.427925 -7.7557259 54.624836
-144.54044 -6.955986 97.47995
-142.01155 1.44841 95.883125
-79.389442 7.381989 53.463356
-139.2877 7.9479361 94.532524
-78.762291 21.485456 53.182602
-79.748672 29.652914 53.663937
-82.350929 41.863991 55.350571
-142.96507 51.248493 96.469971
-144.95148 59.163094 97.587761
-92.720985 64.918663 63.382214
-146.45032 64.240402 98.781982
-90.181595 66.600517 61.717598
-147.52806 69.090797 99.508926
-147.42679 81.311493 99.436111
-90.008575 85.098793 61.164761
-143.22479 107.72442 93.72377
-140.62602 108.51295 97.289597
-135.29251 113.57172 93.795998
-137.53262 120.1639 93.345665
-119.18771 157.20107 80.748932
-120.39671 157.86409 80.028793
-112.52274 -107.26605 78.303329
-110.79029 -82.858978 74.660706
-134.32133 118.75367 91.095276
-120.47338 158.13417 81.730186
-92.944588 -87.369278 65.143547
-110.62634 118.62753 77.713577
-125.1752 -79.349586 85.861336
-93.149452 -94.666481 62.831657
-91.553101 -92.426445 63.104206
-134.4359 118.40324 92.66095
-139.05247 114.96909 95.395935
-119.60706 157.36264 81.936249
-127.1535 -79.355576 87.737823
-91.850723 74.548248 62.901497
-98.254448 -84.985573 68.316376
-95.915405 -85.783203 66.941246
-90.079666 87.177383 63.400871
-121.98209 -78.344803 83.581627
-94.23571 -91.46656 66.843658
-92.741585 -88.214378 66.445007
-101.60986 -85.768188 71.727013
-78.773048 -13.681365 56.893238
-141.67914 104.23901 98.465965
-119.89582 118.65287 84.313034
-117.16632 -70.984764 80.827248
-97.796173 -47.539688 66.340034
-135.60255 119.77029 93.868301
-103.89406 -52.851177 74.668571
-138.17496 -112.29785 95.638428
-135.00706 118.77655 93.572121
-98.845917 -83.483856 69.465424
-97.321312 -83.170799 68.330978
-124.72876 -111.97887 88.144371
-90.953575 69.783951 63.972008
-114.19338 119.05573 80.083679
-96.823883 -94.347404 67.271896
-93.542671 89.278915 65.374161
-94.282501 -86.755775 67.124519
-123.88164 -78.813995 87.516571
-93.188728 74.460968 65.985641
-143.03281 -108.15245 99.707321
-92.114891 64.943871 65.25592
-107.21329 -95.914116 74.323967
-111.97638 -64.415092 77.862953
-90.95639 66.193573 63.63662
-75.733002 -29.216894 55.405251
-146.20006 -104.82663 101.613
-107.27325 117.81233 75.693642
-78.679802 -37.4039 55.446022
-75.845619 -32.183594 54.986446
-86.718407 -44.790699 60.693138
-149.63321 -100.09735 103.49042
-152.84331 -84.234093 105.52945
-76.358917 -34.806004 55.223469
-80.449638 -41.39452 58.857166
-130.30556 114.894 90.20462
-83.109962 -44.090225 60.249805
-80.71331 -39.048939 56.878651
-110.3357 -82.933479 77.453255
-137.67073 112.3595 96.649834
-90.468727 63.737946 66.896675
-151.33946 -93.825729 105.37094
-132.96291 -113.1718 93.375443
-122.33579 -77.847748 85.628456
-152.64807 -89.679588 105.55502
-122.39597 -84.820335 86.395149
-95.896141 111.41927 68.242348
-135.0556 17.620173 96.597771
-116.07968 -85.153076 82.099487
-90.89888 96.355492 64.033997
-110.43919 -86.034172 77.019981
-150.42003 -58.654884 104.33479
-77.033775 -25.493958 55.791145
-89.03524 99.225029 64.2286
-134.36525 112.68886 94.414635
-144.72903 -26.002504 100.42332
-102.64132 114.97005 72.127487
-144.19913 -17.128159 100.21168
-125.97958 117.139 87.78759
-78.710777 -17.136913 57.299217
-126.67568 -83.641434 89.906441
-92.072289 -96.29631 65.876083
-114.58889 -82.049545 80.691956
-95.577629 -48.289597 68.788551
-142.9861 -9.1586876 99.573181
-146.42119 -34.617771 101.75742
-93.399139 -90.125595 68.121468
-149.29642 -50.409824 103.7465
-140.8468 -0.40366197 97.842468
-125.24644 -80.495995 87.772568
-93.264534 108.20564 66.13269
-92.378761 92.129341 65.516441
-136.41309 113.89866 95.608444
-93.740097 71.211143 67.045715
-77.72123 7.7216778 56.308315
-90.531288 -92.485138 65.466431
-99.622993 -102.50484 71.577278
-142.26549 93.636276 102.20328
-127.04537 -78.912643 88.963173
-151.89487 -70.328247 104.75909
-95.990685 -92.834999 68.480377
-107.13393 -105.48803 74.384605
-91.078156 -46.826557 66.873123
-128.2606 -81.205177 90.375824
-128.62096 -87.07885 91.289757
-138.16612 -110.80544 98.564217
-148.67038 -57.617046 104.17244
-127.15339 -89.864502 89.260895
-89.39386 103.57685 64.918854
-102.8965 -87.715652 75.491875
-150.0036 -78.736343 105.63618
-109.51176 -86.989983 79.155457
-94.63591 75.25428 67.791908
-89.927429 75.979111 64.265816
-149.67738 -97.434761 104.66544
-91.697388 89.250694 66.486046
-106.49207 -94.633492 75.673653
-132.82579 112.88203 93.301506
-86.432991 -45.198929 63.008862
-127.98653 -84.19677 91.153343
-92.745049 -87.551414 67.033905
-151.50444 -86.461296 106.08064
-138.74771 40.648708 97.999382
-88.291328 85.050903 63.429222
-128.56787 -85.732353 91.778404
-94.864098 -88.406616 69.62326
-95.944992 -86.942497 69.943924
-117.79533 -80.462578 84.157433
-95.816772 -90.659325 69.911346
-137.26685 108.70273 98.574547
-97.16008 -83.809639 69.704102
-145.48071 -42.985703 102.8801
-88.055649 78.2873 63.501431
-95.299667 -101.19937 70.084419
-150.33806 -87.500351 105.94473
-143.30283 -29.202072 101.30318
-87.715355 81.032898 63.363964
-99.003075 -51.044895 72.554207
-106.65883 -55.74931 76.68914
-77.440918 -4.55234 56.11829
-113.21767 -95.272598 80.625648
-144.16158 82.28447 103.34154
-92.891121 -98.247787 67.960327
-112.16359 -106.69026 79.566887
-96.313072 -96.909988 69.952065
-145.00249 68.600998 102.15345
-112.20323 -65.347412 80.305313
-84.751083 52.291912 60.465004
-76.993942 21.232399 56.517078
-145.58533 74.278099 102.58765
-83.100975 56.716476 69.936638
-82.036697 48.025654 59.966259
-101.26747 -93.717003 72.331108
-102.26318 116.50839 73.912079
-143.76828 63.873402 101.5601
-142.44174 59.369171 100.53439
-125.77691 -78.433907 90.046715
-94.014153 -87.610779 69.31517
-140.76096 52.653984 99.719406
-101.18243 -91.676651 73.515442
-142.58676 -24.142717 101.00755
-90.296349 86.476868 66.147934
-146.30945 -101.88355 103.67924
-80.162491 42.283112 59.073231
-148.90855 -92.677391 105.84111
-109.32963 -83.910118 78.411179
-91.028275 75.629852 66.553719
-75.612755 -35.119183 56.85519
-101.81948 -86.50441 73.735893
-78.296654 -37.862164 58.02388
-77.756851 29.37849 57.149105
-108.79924 -87.927795 79.807854
-99.293404 -97.573509 72.69516
-119.1786 -73.022156 86.280807
-91.779411 -95.319824 67.714539
-135.98505 -112.20052 96.665634
-76.677353 -20.182802 57.331596
-108.39132 -93.803276 78.653992
-124.98813 -80.877335 89.969643
-118.44904 -95.727798 84.928291
-99.450836 -86.465736 72.799744
-91.929253 85.185608 68.14814
-125.80914 -88.850899 89.926895
-77.274757 -9.7687407 57.913055
-88.205254 95.09201 64.667374
-141.42201 -19.882647 101.35191
-104.82109 -91.011612 77.423904
-147.62508 -69.804939 105.62668
-119.62097 -85.560158 86.065796
-141.20386 -107.88422 101.06229
-96.183167 113.05151 70.288628
-105.80167 -86.212585 76.87175
-125.98889 -111.97372 91.663521
-112.42501 -65.418304 82.041458
-94.190788 77.972832 68.869965
-94.350655 -98.651283 69.82579
-145.38542 -99.725052 104.39797
-97.74575 -99.837059 72.294403
-89.30365 83.920265 66.820648
-148.86426 -87.637413 106.25044
-113.12785 -82.471451 81.578445
-124.35118 117.03753 90.87925
-93.644714 -88.333351 68.908287
-127.35699 -81.922974 92.50602
-95.015709 -97.472748 70.348511
-129.06331 -82.201912 94.162369
-119.38049 -109.67342 87.790627
-94.851303 -88.774094 70.721161
-91.723595 -90.034508 68.140846
-76.806404 -17.647783 57.760212
-134.46541 -113.21397 97.979523
-102.42957 -87.849854 75.745461
-88.502113 78.115402 65.504097
-147.97729 -64.399315 104.96851
-105.64411 -103.1532 76.698524
-134.96867 11.95555 97.531967
-134.15166 110.03125 97.505074
-122.24873 -94.733803 88.331238
-139.50523 -9.3153868 100.9906
-145.46626 -55.833534 105.05549
-96.113388 -99.045395 70.962936
-133.11597 -112.28788 96.429535
-112.43776 -105.17455 83.32795
-111.63381 -86.790573 81.762413
-88.058388 80.993599 65.376854
-138.27145 102.1552 102.89791
-93.037117 81.474052 69.136955
-126.60561 -79.508507 91.807091
-147.28255 -82.986496 105.90411
-123.55925 -87.106361 89.733032
-101.64627 -99.38736 75.874924
-93.891174 -93.456482 69.921463
-144.26617 -45.304539 103.78326
-99.908432 -89.656189 74.577843
-109.81864 -85.841805 82.121284
-97.888664 -87.350563 72.740097
-116.54538 -106.98631 87.692123
-90.118523 77.98069 67.562294
-146.77628 -92.002647 105.66528
-136.0229 5.8414302 98.105507
-137.57191 105.09749 101.39507
-77.007927 -12.516356 58.496281
-73.683014 -25.27766 57.625793
-93.187592 -96.384079 70.187477
-111.39253 -93.108994 81.620148
-111.50384 120.21487 83.334396
-143.78384 -101.1038 104.29326
-76.566597 7.6406808 59.345291
-146.5023 -87.747612 105.57368
