# .PCD v0.7 - Point Cloud Data file format
VERSION 0.7
FIELDS x y z
SIZE 4 4 4
TYPE F F F
COUNT 1 1 1
WIDTH 1481
HEIGHT 1
VIEWPOINT 0 0 0 1 0 0 0
POINTS 1481
DATA ascii
7.1200757 -88.986206 -110.22279
7.0231934 -84.225502 -79.267303
6.9289789 50.857067 -1.9910285
6.9924712 -95.127007 -79.232368
5.1178164 64.856316 -77.332222
6.6351147 34.378593 -61.112049
7.6751137 -90.964523 -79.097191
5.994112 23.825546 -54.957973
6.5838008 32.168015 -60.846355
5.8888083 48.411743 -55.7178
5.8345728 39.439911 -59.988201
6.397747 46.433502 -4.0950112
6.2740202 55.371384 -53.510315
6.6827931 -81.547203 -77.002701
5.9399972 58.00209 -7.3121758
5.8129025 -96.732872 -81.40036
5.6902585 -90.466164 -81.138748
5.8308959 -92.201508 -80.672836
6.564508 -95.689072 -94.235947
6.4685817 -85.257179 -81.900284
5.8494587 61.988331 -60.087658
6.5909829 -87.131401 -80.825897
7.375371 -47.574665 -50.789318
6.3032923 -97.778015 -80.15873
4.501369 -46.274712 -49.769608
6.028327 -105.3167 -80.810844
5.0974336 -97.89563 -99.191544
4.2783179 -52.607483 -52.267426
6.9143176 -78.635635 -84.878456
6.3776526 -86.149902 -81.473
4.5856624 -102.8543 -98.012871
5.6945181 61.581932 -23.426334
5.8547754 65.349144 -73.706764
4.8556204 -37.564899 -47.981995
6.0112824 53.52042 -4.3337379
5.837966 -70.401031 -79.955482
6.2816534 -81.433296 -78.408997
5.6376691 61.220322 -13.989809
5.3615708 -104.02085 -86.783989
2.0269198 -88.925323 -112.15144
6.015377 -100.50784 -77.923897
5.0419412 -92.528725 -76.491089
5.81352 -23.711409 -97.281143
6.2722025 0.2281155 -97.889061
3.8399599 63.871685 -81.079147
4.3195677 62.190083 -85.868042
6.1196346 62.937138 -21.88109
5.5907478 60.147495 -89.464561
5.8078589 -101.41832 -100.87304
4.8067608 -33.233852 -47.441086
3.5092344 52.301472 -94.923569
5.8421245 -101.02863 -75.60759
4.3560872 -102.78322 -95.845177
4.845202 -105.92331 -84.202469
5.8873296 59.714134 -22.615112
5.7012448 -32.421471 -97.863564
5.9972315 -97.780098 -99.417999
5.751802 -102.66338 -75.752541
5.5347466 -92.647812 -81.340652
4.8547096 58.163273 -92.551064
4.9951649 56.807072 -57.2896
6.0300879 -57.201481 -104.98566
6.5969443 -40.33054 -99.807686
5.8533735 -82.384804 -77.327003
5.5205016 55.559444 -7.5350943
5.7202439 -95.835258 -94.376511
4.779881 62.341835 -65.39579
5.5513349 55.144512 -9.0050535
5.6397805 -96.874626 -76.131546
4.7194462 54.67794 -93.442223
5.8173447 57.833179 -15.125857
4.5702667 -81.694389 -83.160172
4.3170033 -48.086121 -103.21297
5.8625145 -100.28302 -75.094223
4.2790489 -77.320045 -110.70443
5.6638436 -95.568504 -74.75219
5.0691667 -98.331505 -95.882683
4.1884966 47.758003 -96.372505
5.306869 60.148327 -15.758908
4.65874 -100.72024 -92.909134
4.8040133 -100.66028 -95.447693
4.7464724 -100.54917 -73.354225
3.5165346 -94.553017 -74.06002
3.9998305 63.811974 -68.415771
4.5814323 -104.06446 -78.216499
4.9608912 -75.6409 -83.306259
3.8145421 37.502052 -59.917637
4.9901733 -95.520294 -76.219322
4.5460844 53.05138 -57.606647
4.7860479 -96.089958 -94.744202
4.1367784 -79.659943 -83.416161
4.2356672 2.1044776 -98.152206
5.3527231 -83.917297 -79.309502
4.1429801 -107.00658 -80.789307
4.9674215 -103.00277 -79.432289
0.1843082 -91.545227 -111.55116
3.6778417 -56.714005 -56.210941
5.0398669 -98.428223 -73.463623
3.6195867 -69.207199 -79.198166
4.8377762 45.917942 -58.372787
5.2675247 -99.141685 -96.135551
2.6487932 -103.01071 -98.496864
3.5621307 59.374126 -63.02026
5.190073 -91.786629 -82.48484
4.8476748 -97.14933 -80.004669
3.1629725 33.173061 -98.854111
3.7426984 -107.12135 -82.93763
4.0274301 -39.085522 -99.913536
2.9349496 7.9774132 -48.447765
4.8366585 -99.75766 -73.28141
5.0596929 -86.0355 -81.468697
5.1780524 -93.030022 -78.126854
5.064292 -98.940697 -73.466248
5.0438237 -97.557701 -71.172302
4.3236313 -101.37724 -79.192024
5.0233436 -96.971497 -71.170799
4.454812 -7.5756159 -47.629822
4.3946233 -93.846535 -79.158615
4.8977628 -83.243301 -79.411903
4.8977628 -81.623497 -76.553299
4.0416698 62.225357 -92.545837
3.5501194 -40.503853 -47.831203
3.9588857 -95.499489 -107.54566
4.832654 -98.241203 -70.999901
4.8192544 -99.419846 -73.229065
4.8112044 -97.974197 -70.917198
3.8368056 43.026863 -59.957073
4.5764346 -97.480309 -70.643608
3.9672263 -96.584473 -95.867722
4.5702848 -96.894966 -70.637466
4.7480431 -84.201401 -82.188202
4.7480431 -82.346199 -80.245598
4.7480431 -81.308701 -76.8433
4.452949 -97.943199 -72.911499
3.5950587 -100.77708 -76.653084
3.8268628 -99.881592 -79.332512
4.6846437 -98.965103 -71.130798
5.5389023 -66.90731 -75.18927
4.0916052 11.803872 -98.633156
4.4477754 -101.93716 -92.350365
4.6466031 -81.282402 -78.440399
2.7341669 30.172752 -57.289787
3.8369503 -95.672653 -73.105057
4.6137571 -100.1747 -73.174652
4.6682291 -98.606544 -70.883888
4.2856264 -97.572861 -98.309479
4.2584043 -102.74984 -75.179848
4.5575233 -98.354408 -70.679337
3.8540368 62.908356 -91.267006
4.3922563 -98.018341 -70.543251
4.4482985 -99.877808 -71.673744
4.1290259 -97.003876 -79.697067
3.6474192 -47.882015 -50.091717
4.3657813 -99.554985 -71.35833
4.4435687 -96.082939 -70.596069
4.4394646 -92.619164 -80.752525
2.9015028 -103.19947 -75.971733
3.9329402 -97.475204 -78.364258
3.0466685 -106.7827 -78.6353
4.5555706 -97.447952 -72.939034
4.4149637 -95.534302 -70.766998
3.6304204 -99.87619 -70.722305
4.2505465 -96.451019 -72.908203
4.0262742 -94.812225 -70.98069
4.3016791 -90.010742 -82.519058
4.4536443 -93.074989 -79.499092
3.9949555 -96.448647 -78.941826
4.0891128 -104.02984 -79.376335
2.6479905 -66.631645 -76.649117
3.995517 -94.464722 -71.031006
4.0549984 -94.024284 -79.722382
3.2217782 -99.976135 -72.034592
3.2534618 -106.49072 -88.759613
4.1054111 -100.26577 -71.585487
4.315731 -100.73167 -71.911583
3.2637393 -94.980576 -73.252594
3.9554322 -90.760612 -80.250305
3.0234044 -99.481865 -71.809601
4.2227917 -97.600609 -70.267113
4.2556806 -101.05849 -72.296379
2.6229734 34.568188 -59.124977
2.2248936 -99.205276 -71.414444
4.1023707 -97.038399 -70.144745
2.5611949 -98.577736 -71.447113
4.0914226 -95.666954 -70.321953
3.1202853 -101.92533 -73.058548
3.8194335 -97.114647 -72.448219
3.4186716 -92.288155 -79.164062
4.6954656 -101.59041 -76.192802
4.0290799 -99.189362 -70.572777
3.4441972 -100.45976 -72.359497
3.9466546 -98.758728 -70.336746
3.877449 -61.192181 -106.55403
3.6710601 -99.057602 -77.748238
3.2573369 45.94577 -59.877811
3.9747863 -97.069885 -97.236862
3.4976447 -94.170845 -70.388901
3.4364567 -93.610794 -71.254982
3.1976144 -96.67997 -69.609627
2.9151371 -88.251923 -84.143463
2.4481583 25.08181 -54.167404
3.6197288 62.39893 -88.218147
3.8006876 -100.16605 -71.144356
4.6190615 -66.08831 -107.77461
3.6223028 -98.062965 -81.537849
2.3702137 -99.603302 -103.40622
3.3262274 -102.77623 -79.082214
-0.71439141 -4.5324717 -47.422955
3.7419784 -94.932922 -70.159821
3.6692574 -17.904446 -47.826
1.4654433 67.017601 -71.448563
2.9292655 -71.70282 -80.257523
1.8520116 -101.73711 -72.30481
4.8959413 -85.201721 -81.940414
3.3271139 -96.465263 -78.42984
3.8768125 -97.603668 -79.075813
3.6552689 -102.00246 -79.306686
3.3641562 -95.765465 -69.778923
3.0463872 -104.43806 -92.523521
3.6665206 -98.02478 -69.877808
2.2467983 45.123135 -97.5336
3.5114896 63.730324 -93.631607
3.090524 -93.573479 -72.557762
1.709795 65.19236 -78.345131
3.1453197 -101.3088 -71.579712
3.2451923 -93.842072 -70.54454
1.6111351 -7.2055907 -47.382549
2.725179 50.608063 -60.45314
2.5691302 60.972904 -65.739632
3.0248578 -102.02968 -75.50824
3.2114787 -99.609619 -70.24971
3.8672962 -93.39357 -81.104805
3.1170475 -99.137344 -69.802483
1.503213 -60.185947 -62.109951
2.2170911 -97.707771 -69.112427
2.9862292 -98.691223 -69.533913
2.6364923 21.393341 -98.95137
2.9385157 57.613258 -94.513794
2.9925017 64.145363 -90.027695
1.0093248 -90.804451 -78.109833
3.3108537 -94.065697 -71.860603
2.0157514 56.218388 -62.758591
3.1828554 -95.219406 -69.715508
3.0398636 -29.453703 -97.649628
3.2070136 -104.89942 -84.085968
3.2381725 -95.251999 -73.04911
3.185286 -94.21315 -71.074722
2.665652 88.156326 -93.615265
3.5141225 -104.92976 -79.220291
2.5482225 -102.18659 -80.881599
2.9977531 85.533844 -92.669792
3.1332932 -92.362473 -80.697929
2.5498745 40.56469 -60.219784
2.1578259 -105.83143 -77.896317
2.4626307 -93.33075 -78.718857
3.788939 -106.05272 -83.940773
2.8009045 -101.07072 -71.102089
2.757381 -100.52303 -70.604622
2.0072057 -103.17348 -73.698593
1.6677408 -102.53255 -72.327965
2.2723837 -109.74003 -83.230011
2.7698565 -98.22316 -69.37793
1.5789037 -102.87437 -72.857826
3.0768104 -94.587341 -70.014984
2.7380006 88.211205 -91.678055
2.7749424 -106.15684 -84.974136
5.0967245 -34.330723 -98.53186
2.8118119 -94.594086 -73.550438
2.3546457 62.356064 -86.700684
2.0072803 -23.489264 -46.88694
2.8051338 -94.235603 -72.551697
2.9109805 -91.650269 -83.669098
2.9683805 -94.698082 -81.523056
1.5521952 -97.689178 -71.595497
2.5387087 -96.091202 -69.465691
2.4265561 -105.30444 -78.684616
2.3771 -104.42091 -79.052589
2.2265112 123.60951 -94.056419
2.9265485 -97.589485 -80.73793
0.43682459 -83.039391 -111.90662
2.132937 -99.878403 -76.539803
1.3372862 -90.38665 -80.652588
1.9641604 -94.151039 -71.774597
2.353909 -104.33165 -79.236961
2.4094527 -89.109055 -81.889984
0.32760629 -106.16325 -76.76339
2.0201325 -86.663597 -83.053665
2.4559975 -102.31473 -76.520485
1.9062527 -107.59119 -88.215904
1.9969133 -100.95974 -72.002121
-1.4238617 -38.122559 -99.790932
1.6672566 -102.17219 -71.750992
2.2168653 -100.32849 -70.036766
1.7530206 -95.648331 -72.675331
2.0992126 -94.279823 -70.444008
2.1523249 -94.266884 -83.121109
1.3006592 -36.540409 -47.014328
1.9848222 90.014687 -94.382858
1.7323465 -96.214645 -72.328629
0.5829348 -91.148499 -81.003174
2.0749598 -45.200581 -102.55891
0.99214089 -104.88575 -75.992516
2.5314097 -101.78297 -77.707809
1.5388358 58.372406 -64.379066
1.7377909 -96.875832 -71.966057
1.8496702 124.66179 -95.045982
2.107403 -99.408508 -78.840439
2.0249007 93.776978 -91.114731
1.0283415 -105.43984 -82.886635
2.7021472 -75.003563 -110.48592
2.2079022 144.77307 -94.732155
1.8703667 125.83799 -93.264145
1.9093586 -98.365303 -71.487335
2.2035737 -96.786697 -69.220802
3.405174 -108.81209 -83.216553
-0.035611566 64.366547 -82.086884
2.13146 -99.722313 -71.600365
1.7017516 -102.52457 -76.2267
1.332456 53.219883 -62.639912
2.0805984 -100.30838 -71.758575
1.5989021 -99.315475 -69.388397
1.3179072 47.382721 -61.258526
1.8041106 -99.808838 -69.677582
1.0940881 -101.12844 -70.539619
0.97003937 -106.76408 -83.52137
1.9150794 139.95926 -95.675133
1.8803469 -94.232216 -72.451279
1.5321101 -96.530327 -80.080566
1.8241079 -97.943466 -79.156319
0.5303973 -105.79086 -83.282028
2.0895309 -98.306404 -82.868011
4.4604354 -82.970963 -111.58337
1.477944 147.58702 -95.960426
-0.017214548 -104.54248 -79.929893
1.631952 -104.37806 -77.760178
1.2521473 -55.409168 -55.576042
1.374128 -94.4702 -71.131187
1.6337248 -107.69203 -81.590317
2.2578247 -43.263691 -48.209877
-0.080253549 -103.64559 -77.049011
1.5625938 64.167213 -88.426186
0.17226571 -86.381874 -80.777725
0.94957507 -96.22197 -78.577209
-6.9549128e-06 -107.66346 -79.326157
-0.71598297 -98.479271 -105.01186
0.060854796 24.381401 -53.413677
-7.9192992e-05 64.606689 -66.721565
1.337621 -93.961479 -79.936073
1.3405321 -95.355507 -70.019417
-7.2065095e-06 -82.294861 -82.432861
1.3978435 -95.940147 -69.65239
1.2747753 145.21509 -93.606972
1.399491 54.788948 -95.51783
1.5795939 -96.322899 -69.330498
1.4006281 -101.5788 -76.718811
1.5139164 68.143951 -89.272125
1.5814499 -96.866638 -69.082146
1.9416672 -103.93535 -76.419624
1.3082737 -72.118195 -80.075806
1.481578 -97.69622 -69.136429
-7.3616047e-06 -86.591148 -84.206947
2.4035363 -79.84478 -82.629036
-0.25912535 -97.745804 -80.337181
1.1696454 -101.78468 -71.193443
1.0916685 -98.770027 -69.186462
0.40550336 -101.86509 -72.205421
-8.5613337e-06 4.2810502 -97.930237
0.73208219 -104.03036 -77.226189
-0.86691594 64.709587 -79.749649
1.1585735 152.86774 -95.295982
-0.24662651 -87.386696 -112.41712
1.1748492 85.135422 -90.175545
0.011621015 -32.311554 -47.077362
-0.00053679157 62.305565 -84.434921
0.005868997 -101.91254 -77.134155
-5.4444426e-06 -59.661102 -62.277164
-0.01870528 -48.421646 -50.687817
1.0240861 92.972359 -94.881584
1.0625322 100.86744 -90.8545
-7.1548398e-06 -88.241882 -81.841827
1.6964966 66.75872 -75.286301
-0.01062989 -51.994957 -52.51326
-0.0099185221 -94.311218 -71.742805
0.45632693 152.87218 -94.26931
-4.219426e-06 -42.047668 -48.264606
-0.89875352 61.894447 -86.170349
0.35338289 -94.939621 -70.367828
2.1959667 -103.84563 -94.921112
0.39234111 123.63131 -95.70742
0.37593907 127.30673 -92.415253
0.4626697 139.79462 -96.321228
0.048734747 -96.774818 -69.288956
0.2730085 -98.79895 -71.368423
0.78491479 -99.477203 -71.380699
-6.2496747e-06 -100.16145 -71.487946
-0.88059795 -104.83989 -75.794495
0.23592964 -102.3177 -71.905441
0.003674092 -99.984344 -69.525169
-6.2633749e-06 -100.69583 -71.644661
0.13307656 -99.386391 -69.272064
0.046327438 52.631367 -62.115795
0.71029967 -102.79499 -72.467003
0.018008007 60.706421 -65.007195
0.48181874 -109.95084 -82.039268
-1.0147634 -99.092003 -77.547386
0.65104663 -103.171 -72.994698
-3.1245687 1.6662555 -47.872772
-0.011604511 -75.4842 -110.39098
-2.5332515 17.408064 -50.856709
-4.1194792 13.038024 -49.521294
-0.53544533 152.89151 -95.810486
-1.1211929 -109.42592 -84.744034
0.019112304 -103.23096 -96.599976
-0.59876376 -103.93412 -77.284019
0.72066361 -104.85196 -77.720085
-0.0020413836 -104.35596 -77.596268
0.55766046 -108.90245 -80.344139
0.2050707 -105.15568 -77.505829
-7.1921349e-06 -101.40756 -82.26844
-6.3847474e-06 -103.23399 -73.032997
-6.338807e-06 -102.86 -72.5075
-0.62225574 -101.84612 -71.203705
-6.1654123e-06 -101.343 -70.524101
-0.57812369 -101.23306 -71.854729
-0.012811627 -100.70058 -69.953186
-6.8195686e-06 -99.531281 -78.121162
-0.4012576 -99.573128 -71.34713
-2.2376885 -100.01676 -76.521156
-6.0451193e-06 -98.965103 -69.148102
-7.3307833e-06 -96.379509 -83.854385
-0.077860013 -98.322128 -69.050537
-0.25987279 -97.634254 -71.635674
0.0031827788 -97.427887 -69.102844
0.013761237 -95.433807 -81.024094
-6.0881662e-06 -96.155899 -69.640503
-6.1212636e-06 -95.549698 -70.019096
-0.49813053 -94.733383 -71.084984
-7.1656036e-06 -93.333435 -83.680756
-1.8206329 -94.237244 -72.444427
-6.9038201e-06 -88.735321 -84.804214
-0.12416577 -85.862709 -82.871712
-0.98722935 -79.320923 -82.248146
-2.5416057 -73.290558 -80.631126
-9.3674826e-06 -63.982685 -107.1515
-6.6356442e-06 -66.343208 -75.902924
-6.1731789e-06 -63.144634 -70.612938
-0.68415612 -55.426086 -55.829117
-9.2312339e-06 -56.621964 -105.59301
-1.8868794 -33.984501 -98.375237
-2.1257487e-05 -23.285666 -46.641014
-8.5017164e-06 -18.897005 -97.248291
-4.1536632e-06 -13.431598 -47.512371
-0.23637445 -7.6497936 -97.767281
1.7553353 31.766144 -57.840286
-3.0054331 33.218239 -98.865524
-8.6059581e-06 40.878292 -98.440689
0.63579249 51.523777 -96.076561
-8.3786745e-06 53.796722 -95.840866
-7.6458482e-06 63.692028 -87.458305
-7.7356608e-06 65.708679 -88.485649
-7.8176045e-06 75.203499 -89.422974
-0.52181441 102.35686 -95.185677
-7.9188994e-06 100.35843 -90.58165
-8.1520011e-06 144.47096 -93.248024
-0.38396057 147.45375 -96.287155
-0.9505493 153.39142 -94.792381
0.042228159 67.383202 -72.974297
-0.023634082 -60.605911 -65.231834
-2.1072121 -102.86858 -77.13279
-8.7285607e-06 -102.49211 -98.928001
0.11830621 -96.039032 -107.91791
-1.6148105 -109.5355 -81.632248
-1.0385885 -102.48824 -76.140968
-1.3993359 -104.49709 -77.629875
-3.587523 7.2063079 -48.421989
-0.53041184 -105.79086 -83.282028
-2.3062294 -88.489906 -112.10234
-1.1213125 -37.642921 -47.17075
-1.332461 53.219566 -62.639793
-0.65105939 -103.171 -72.994698
-2.5595732 60.954586 -65.731522
-1.2873 47.413612 -61.285271
-1.2747916 145.21509 -93.606972
-1.5389322 58.372406 -64.379082
-0.71031231 -102.79499 -72.467003
-2.075526 31.821266 -57.987831
-2.2698698 -100.93493 -72.000893
-1.5968628 -99.304413 -69.392899
-1.7575526 -99.865829 -69.656563
-2.3437388 -103.05954 -73.708809
-0.75542223 -102.312 -71.847
-0.75101936 -105.99958 -76.650772
-2.1974678 -98.417618 -71.481216
-1.0916806 -98.770027 -69.186462
-1.7970709 -101.78363 -72.282379
-1.0941005 -101.12844 -70.539619
-2.2776482 -43.131691 -48.180405
-2.4473646 -103.70728 -95.273453
-2.1819701 66.751961 -71.524254
-1.4365342 -98.46714 -71.467598
-0.97136217 -96.135452 -78.606651
-1.6087365 -97.64315 -71.630203
-1.5895392 -96.324829 -69.332787
-2.6057444 40.508595 -60.19561
-1.2797832 124.45537 -95.464218
-2.3163605 -96.853073 -71.966492
-1.3978503 -95.940155 -69.65239
-1.3223193 139.63165 -96.076797
-0.84190321 126.49763 -92.551392
-1.4213743 -106.17661 -78.124718
-2.2295835 -96.18045 -72.298935
-1.3405442 -95.355507 -70.019417
-3.1921523 -33.648548 -47.094959
-0.97005403 -106.76408 -83.52137
-3.6793633 22.907211 -98.932655
-1.865944 -95.64418 -72.678307
-0.92074627 -94.821297 -70.373199
-2.4170935 66.490356 -75.440895
-1.062548 100.86744 -90.8545
-1.7206961 -59.91684 -61.557198
-3.8070877 12.881288 -98.701431
-1.028356 -105.43984 -82.886635
-3.2376277 -95.275261 -73.071121
-0.86207443 34.269768 -58.602932
-2.0035851 -94.20871 -71.749046
-0.59274894 86.475693 -95.099289
-2.8096902 -94.632904 -73.568253
-1.1748649 85.135422 -90.175545
-2.1074169 -99.408508 -78.840439
-1.9939948 -86.687859 -83.088142
-3.7873938 -46.598076 -49.575035
-1.3376349 -93.961479 -79.936073
-1.3877828 60.105846 -95.433495
-1.6337388 -107.69203 -81.590317
-1.5789164 -102.87437 -72.857826
-3.9998655 63.811974 -68.415771
-0.057998899 -62.013626 -68.212837
-1.9648629 144.8188 -95.688393
-2.4343815 62.701584 -85.424583
-2.7026157 -75.019775 -110.48988
-1.7812228 -70.017349 -78.873764
-1.7090609 -103.61103 -76.936623
-2.2468154 45.123135 -97.5336
-2.1135583 -23.116613 -46.935482
-2.6480038 -66.631645 -76.649117
-1.6677434 -102.53255 -72.327972
-1.513932 68.143951 -89.272125
-2.7998321 -97.648819 -80.752647
-2.5482366 -102.18659 -80.881599
-2.6637623 -103.00552 -98.505409
-2.9710062 -109.43317 -83.154739
-2.2168539 62.590576 -87.07988
-1.8973775 54.113796 -95.242104
-1.6672692 -102.17219 -71.750992
-2.080611 -100.30838 -71.758575
-2.1812289 -100.28712 -70.06311
-2.1314726 -99.722313 -71.600365
-1.4808462 -101.736 -71.156898
-1.519616 -97.721603 -69.106697
-1.9445639 -96.778824 -80.19471
-4.5702739 -81.694389 -83.160164
-1.5576559 -96.806198 -69.123001
-1.8703831 125.83799 -93.264145
-2.3560951 -104.33993 -79.261795
-3.0570364 -92.372902 -80.917198
-2.2079184 144.77307 -94.732155
-4.8956919 -85.202919 -81.931152
-2.0157502 56.218323 -62.758602
-2.4560108 -102.31473 -76.520485
-2.0992167 -94.279831 -70.444008
-2.915154 -88.251923 -84.143463
-1.9848385 90.014687 -94.382858
-2.0249166 93.776978 -91.114731
-1.5626093 64.167213 -88.426186
-3.5780685 -8.480732 -47.601788
-2.4481678 25.08181 -54.167404
-2.0895452 -98.306404 -82.868011
-2.1523395 -94.266884 -83.121109
-3.0466852 -106.7827 -78.6353
-3.4866173 -95.125008 -73.363564
-4.2783265 -52.607479 -52.267426
-2.9995306 -106.93781 -88.577332
-2.0183971 123.98637 -94.749619
-3.8774672 -61.192181 -106.55403
-2.8261664 -105.40003 -78.738503
-3.7190089 -48.390373 -103.41664
-1.4276291 -104.15128 -76.370697
-2.7749572 -106.15684 -84.974136
-2.7133603 -103.8006 -76.635696
-2.8009169 -101.07072 -71.102089
-2.3771157 -104.42091 -79.052582
-2.7903934 -99.55307 -71.734055
-2.7698686 -98.22316 -69.37793
-3.6732483 -40.255783 -47.821617
-0.91394949 -42.408264 -101.67562
-2.1453166 -99.073486 -71.499352
-2.2171032 -97.707771 -69.112427
-2.9636326 -94.755943 -81.512672
-3.9131281 -95.465874 -107.59927
-2.2265277 123.60951 -94.056419
-2.2035859 -96.786697 -69.220802
-6.4749041 -91.065643 -109.57812
-5.5313668 -10.961971 -97.849159
-2.5387208 -96.091202 -69.465691
-3.1828644 -95.219406 -69.715515
-3.6196003 -69.207199 -79.198166
-2.7380166 88.211205 -91.678055
-2.7252152 50.608017 -60.45311
-2.4626446 -93.33075 -78.718857
-2.6656682 88.156326 -93.615265
-3.0768225 -94.587341 -70.014984
-3.6778519 -56.714005 -56.210941
-2.9109964 -91.650261 -83.669106
-2.9925175 64.145363 -90.027695
-2.9385321 57.613258 -94.513794
-3.6552825 -102.00246 -79.306686
-2.7573931 -100.52303 -70.604622
-3.1170666 -99.137344 -69.802483
-3.2573476 45.94577 -59.877811
-3.221791 -99.976135 -72.034592
-2.9862413 -98.691223 -69.533913
-3.1852987 -94.21315 -71.074722
-3.9497819 -60.971649 -65.258591
-2.4862659 -89.279167 -81.679672
-3.381856 -94.114113 -71.830818
-2.9015162 -103.19947 -75.971733
-3.1976266 -96.67997 -69.609627
-3.3713443 -93.013496 -79.04425
-3.3271277 -96.465263 -78.42984
-4.5784707 -83.002762 -111.5437
-4.4190822 -97.73497 -72.710297
-2.8051465 -94.235603 -72.551697
-2.9977696 85.533844 -92.669792
-4.1429939 -107.00658 -80.789291
-4.2584171 -102.74984 -75.179848
-5.8476868 -23.831078 -97.27594
-2.6279309 -91.127205 -80.125542
-5.5882483 64.892967 -71.212631
-4.546093 53.051395 -57.606647
-3.1150534 -29.381788 -97.63987
-3.444206 -100.45976 -72.359497
-4.7194571 54.677937 -93.442223
-3.562151 59.374119 -63.020222
-3.2114997 -99.609619 -70.24971
-3.1515856 35.36689 -59.521881
-4.4459472 -100.82691 -73.224106
-3.8369565 -95.672653 -73.105049
-3.2451968 -93.842072 -70.544548
-3.1453321 -101.3088 -71.579712
-3.2070282 -104.89942 -84.085968
-3.4845839 -104.88669 -79.175964
-3.6692657 -17.904446 -47.826
-3.0248709 -102.02968 -75.50824
-3.7427125 -107.12135 -82.93763
-3.8540528 62.908356 -91.267006
-3.3641684 -95.765465 -69.778923
-4.0348287 62.544296 -85.166458
-3.7889535 -106.05272 -83.940773
-3.6223147 -98.062958 -81.537857
-3.8368163 43.026863 -59.957073
-3.5115056 63.730324 -93.631607
-6.3592138 -90.377975 -78.828102
-5.8421373 -101.02863 -75.60759
-4.246491 2.3458843 -98.160767
-3.3708942 -99.289543 -72.106712
-3.6665328 -98.02478 -69.877808
-4.0416861 62.225357 -92.545837
-3.4976599 -94.170845 -70.388901
-3.0464032 -104.43806 -92.523521
-4.0550127 -94.024284 -79.722382
-3.5165474 -94.553017 -74.06002
-3.6197448 62.398926 -88.218147
-4.2556934 -101.05849 -72.296379
-4.9609056 -75.6409 -83.306259
-4.3016925 -90.010742 -82.519058
-3.6304326 -99.87619 -70.722305
-4.7085404 -103.56714 -77.906113
-5.5389152 -66.90731 -75.18927
-3.0905366 -93.573479 -72.557762
-5.7518148 -102.66338 -75.752541
-4.3157291 -100.73165 -71.911583
-3.8006997 -100.16605 -71.144356
-3.7419906 -94.932922 -70.159821
-4.0891266 -104.02984 -79.376335
-3.6710737 -99.057602 -77.748238
-3.5950716 -100.77708 -76.653084
-3.8268769 -99.881592 -79.332512
-5.4863315 -61.93158 -68.262688
-5.4775534 -59.794788 -61.087791
-3.8768253 -97.603668 -79.075813
-4.1023831 -97.038399 -70.144745
-4.2489467 -77.348335 -110.72436
-4.3922682 -98.018341 -70.543251
-4.7128873 -104.0869 -79.165039
-3.9466667 -98.758728 -70.336746
-4.0290923 -99.189362 -70.572777
-4.3210993 -97.172485 -72.926575
-3.3262415 -102.77623 -79.082214
-3.4364688 -93.610794 -71.254982
-4.1290407 -97.003876 -79.697067
-4.3236499 -101.37724 -79.192024
-3.9748032 -97.069885 -97.236862
-3.9329548 -97.475204 -78.364258
-3.86731 -93.39357 -81.104805
-4.105423 -100.26577 -71.585487
-4.091435 -95.666954 -70.321953
-4.1735663 -96.479454 -73.016602
-4.9951744 56.807072 -57.2896
-3.3296134 -79.934677 -83.026344
-4.2228036 -97.600609 -70.267113
-4.8547258 58.163273 -92.551064
-4.4536576 -93.074982 -79.4991
-5.1086144 -100.56525 -76.181633
-4.0509658 -90.795898 -80.154373
-4.6137705 -100.1747 -73.174652
-4.4394794 -92.619164 -80.752525
-4.0262866 -94.812225 -70.98069
-3.9672282 -96.58448 -95.867706
-3.9955769 -94.464745 -71.031013
-5.1473947 64.871819 -77.289383
-4.8040304 -100.66028 -95.447693
-3.9949691 -96.448647 -78.941826
-4.2856441 -97.572861 -98.309479
-4.8476849 -97.14933 -80.004662
-5.8345833 39.439911 -59.988201
-4.4464946 -99.622086 -71.308777
-4.4435811 -96.082939 -70.596069
-6.9374709 -25.742994 -48.512363
-4.9901881 -95.520302 -76.219315
-4.3946376 -93.846535 -79.158615
-4.3061118 37.51041 -60.044949
-4.8377862 45.917942 -58.372787
-4.8366714 -99.75766 -73.281403
-4.5575352 -98.354408 -70.679337
-4.962193 -32.899075 -47.499355
-4.668241 -98.606544 -70.883888
-5.1900873 -91.786629 -82.48484
-4.7464867 -100.54917 -73.354225
-4.8452172 -105.92331 -84.202477
-4.4149761 -95.534302 -70.766998
-4.6190805 -66.08831 -107.77461
-4.5702972 -96.894966 -70.637466
-5.0643053 -98.940697 -73.466248
-4.576447 -97.480309 -70.643608
-4.4483094 -99.877808 -71.673744
-4.8192673 -99.419846 -73.229065
-4.6587567 -100.72023 -92.909134
-4.7860575 -96.089958 -94.744186
-4.3561039 -102.78322 -95.845177
-4.4477916 -101.93716 -92.350365
-4.6414509 -83.424911 -82.397446
-4.6466265 -81.282402 -78.440399
-6.4021912 -104.18143 -78.408455
-4.6846557 -98.965103 -71.130798
-6.259059 -39.623413 -99.671204
-6.2163711 57.311493 -91.349037
-5.0974507 -97.89563 -99.191544
-4.1885271 47.757996 -96.372505
-4.7480574 -84.201401 -82.188202
-4.7480569 -82.346199 -80.245598
-4.7480569 -81.308701 -76.8433
-6.3391285 -96.098 -105.96342
-6.5352764 17.235197 -51.478722
-5.2675419 -99.141685 -96.135551
-5.5907626 60.147495 -89.464561
-5.8379793 -70.401031 -79.955482
-4.8112164 -97.974197 -70.917198
-5.3615875 -104.02084 -86.783997
-5.1780663 -93.030022 -78.126854
-4.8326664 -98.241203 -70.999901
-4.8977766 -83.243301 -79.411903
-4.8977766 -81.623497 -76.553299
-5.8547735 65.349144 -73.706772
-6.0283413 -105.3167 -80.810844
-5.8494692 61.988331 -60.087658
-5.9186716 -72.948326 -108.72619
-5.0398798 -98.428223 -73.463623
-6.3840137 1.3041102 -48.090668
-6.2517085 -41.650394 -49.816357
-5.023356 -96.971497 -71.170799
-5.0438356 -97.557701 -71.172302
-5.5347614 -92.647812 -81.340652
-5.6292658 -100.71523 -75.287399
-5.0597172 -86.0355 -81.468697
-6.5838065 32.168022 -60.846355
-4.7798886 62.341831 -65.395775
-7.2669926 26.846529 -98.274849
-5.8309107 -92.201508 -80.672836
-5.3250937 -99.503235 -94.175255
-4.5856872 -102.8543 -98.012871
-5.8888183 48.411743 -55.7178
-5.6638546 -95.568512 -74.75219
-5.4192662 -44.601795 -101.69018
-6.7723079 64.450554 -68.662086
-6.484818 -16.452559 -48.395897
-6.0153832 -100.50785 -77.923897
-6.4090633 -36.072952 -98.877991
-5.6812062 -36.169289 -48.409901
-5.6902685 -90.466164 -81.138741
-5.0691838 -98.331512 -95.882683
-5.9941216 23.825546 -54.957973
-5.3068724 60.148327 -15.758908
-6.9766665 -103.49155 -83.625443
-5.3527365 -83.917297 -79.309502
-6.4051328 -55.307133 -55.310795
-6.0301061 -57.201481 -104.98566
-7.37538 -47.574669 -50.789318
-5.6376715 61.220322 -13.989809
-7.2173896 -60.60154 -63.32056
-5.7738667 -98.997177 -74.700035
-5.8129206 -96.732872 -81.40036
-5.5513363 55.144512 -9.0050516
-5.8173466 57.833179 -15.125857
-6.6843925 59.442421 -52.983028
-6.627739 40.544998 -58.76582
-5.7012615 -32.421471 -97.863564
-6.6351256 34.378593 -61.112049
-5.6397934 -96.874619 -76.131546
-6.6696253 -93.31974 -75.652718
-6.397747 46.433502 -4.0950103
-5.9399986 58.00209 -7.3121743
-6.6213632 -98.210503 -95.095383
-6.823173 -100.92133 -97.142509
-5.7202606 -95.835258 -94.376511
-5.8873334 59.714134 -22.615112
-6.3690295 -95.923164 -75.015129
-6.3033104 -97.777992 -80.158737
-6.9143333 -78.635635 -84.878456
-5.6945219 61.581932 -23.426334
-6.0112834 53.52042 -4.3337369
-7.1564646 -65.164978 -73.639091
-5.520503 55.559444 -7.5350928
-2.2102435 51.131508 -95.855583
-6.2740293 55.371384 -53.510315
-5.8533874 -82.384804 -77.327003
-8.2838459 -43.421646 -51.102936
-7.8134809 62.67263 -83.989708
-7.8828168 -33.70359 -49.176254
-6.1196384 62.937138 -21.88109
-7.4587278 -95.642632 -94.034485
-5.9972491 -97.780098 -99.417999
-6.8832903 -84.481766 -82.349838
-7.1200953 -88.986206 -110.22279
-5.8078761 -101.41832 -100.87304
-7.1317525 53.910118 -10.023842
-7.0303211 -83.063446 -80.738968
-7.2853012 -94.665688 -75.146255
-6.7135072 -80.873489 -109.9893
-8.6093378 -47.831257 -101.01483
-7.4375238 56.732708 -27.645494
-6.4685979 -85.257179 -81.900284
-6.5695567 46.811817 -0.94031376
-6.6666713 -76.248375 -83.988182
-6.2722192 0.22811556 -97.889061
-7.8842793 -79.252983 -108.6142
-6.2816672 -81.433296 -78.408997
-7.2313919 53.089428 -1.7788244
-8.3273659 49.68055 -94.227646
-8.1295643 43.745495 -53.342411
-6.9653792 50.764408 -52.288021
-6.5570836 58.564983 -23.30345
-7.8435273 -5.8469934 -48.023743
-6.377667 -86.149902 -81.473
-7.045979 -92.846977 -108.08149
-6.7503719 63.373665 -15.163889
-6.9289789 50.857067 -1.9910275
-7.3908277 9.6429739 -49.292194
-7.0766258 -100.40218 -89.088104
-6.9924812 -95.127007 -79.232361
-7.1917963 -4.4776793 -97.765877
-6.8074565 37.413002 -97.663979
-7.3003592 -83.792809 -83.020073
-7.5266333 62.014179 -10.79104
-8.9697618 -82.216537 -77.763481
-6.7134037 60.012821 -28.341082
-7.5623164 56.80127 -30.043791
-8.2822342 -75.335793 -108.18874
-6.843133 -62.007561 -105.53094
-6.5645247 -95.689072 -94.235947
-6.5909967 -87.131401 -80.825897
-7.0787005 -94.604317 -81.685066
-7.5607948 57.105476 -18.664762
-7.6701941 60.570087 -87.78714
-6.5854225 49.051243 -7.9412236
-8.8294802 -84.496651 -79.936363
-6.9479823 59.668724 -6.6168718
-9.1104708 -32.489174 -49.387161
-6.682807 -81.547203 -77.002701
-9.6281033 -97.761772 -95.40696
-8.4430113 -10.247346 -48.22002
-7.275445 48.611786 -0.79393506
-7.5946994 -70.128311 -79.922249
-7.611804 55.691639 -2.7626991
-8.6583366 -51.278141 -51.644787
-7.2045083 62.306778 -28.063059
-7.6751242 -90.964531 -79.097191
-7.3158007 44.0158 -0.90992385
-7.3550024 63.551003 -59.293468
-7.8145871 -101.9874 -81.778816
-6.8953695 -97.905983 -99.720123
-7.6805186 -100.68764 -85.994926
-8.0719376 -99.376518 -77.593102
-8.0781679 -64.160484 -73.514427
-7.8615804 55.920746 -13.756433
-7.0232072 -84.225502 -79.267303
-8.6225176 64.992722 -73.119812
-7.7041726 61.569981 -51.602009
-7.4315691 32.114143 -97.898109
-7.314518 45.470242 -5.074522
-7.1064367 -81.947098 -77.0215
-8.3875084 59.010265 -35.989067
-8.3235369 56.889996 -22.489927
-7.8221655 -100.80882 -98.495781
-7.1713371 -82.4991 -77.448997
-8.0332727 -55.554489 -103.52956
-7.5815635 -100.30071 -100.82679
-6.9278669 -67.204292 -75.960983
-7.5712342 -96.016708 -76.626427
-8.4061289 -14.40645 -48.667114
-7.8066053 -85.625198 -82.437317
-8.3381529 29.131477 -59.395588
-8.0706596 -87.450836 -110.55782
-8.3134642 61.290283 -7.1989937
-7.9197707 54.014481 -47.974857
-7.2848244 64.710968 -24.729153
-7.3792219 -93.845551 -107.04807
-8.9192381 45.224655 -0.37886029
-7.4074068 -86.4291 -81.772202
-7.5794287 -98.860298 -97.503662
-7.4288368 -89.340302 -80.028503
-7.6216683 -88.513741 -80.453896
-7.4281292 -92.26796 -82.473579
-7.6796956 -83.342857 -83.547104
-8.3204756 -26.026312 -96.832253
-9.0913467 -97.446236 -96.122406
-7.5853767 -87.425697 -81.117798
-7.805429 -33.314789 -97.377892
-8.8303432 -38.058189 -51.271198
-7.7491412 -98.37677 -92.11129
-8.7848158 67.69696 -25.905867
-8.5838356 -72.511208 -82.62693
-8.0371828 55.967045 -2.1329226
-9.2414312 -74.211929 -106.99376
-8.443675 46.607227 -50.392937
-7.7363181 -97.560898 -99.397499
-8.7987537 66.360191 -21.52347
-8.1933775 41.688919 -54.804996
-8.1066685 56.118599 -26.397108
-8.417325 43.345741 -2.7047172
-7.6446924 48.819019 -8.6960163
-9.0435648 -55.044441 -54.388935
-9.6612215 52.092327 -9.7868013
-7.8809867 -81.687599 -78.7528
-9.7786903 -44.458954 -99.776024
-8.1411352 58.799423 -45.912758
-8.7502165 60.137974 -37.042717
-9.8424282 0.37298608 -48.6698
-8.3957796 -62.018898 -104.05341
-8.2292137 -91.241547 -79.501083
-8.8127623 -13.609741 -96.976532
-8.4591722 -95.593353 -104.53919
-8.4141102 31.910683 -61.010372
-8.2562389 -95.676384 -94.683365
-8.5071716 -92.858612 -80.398102
-8.753335 -90.347549 -80.961769
-8.8603058 34.519253 -60.808418
-8.2898922 64.167374 -60.397415
-9.2286682 21.039454 -54.036774
-8.3454151 -67.179375 -77.498985
-8.4294796 -95.215973 -80.417915
-9.9788208 -62.070229 -71.626389
-8.9913502 64.109238 -29.375969
-8.3403845 -90.878586 -109.88734
-8.2054863 -86.841202 -82.321404
-8.5091801 -46.640499 -8.639102
-9.7734575 48.980534 -43.892315
-8.3324585 -87.89933 -81.623878
-8.9464102 27.860987 -97.310768
-8.4395676 -98.348297 -83.891167
-8.2199993 -43.208874 -11.415215
-8.4982758 64.755074 -15.415247
-8.2848568 -84.328903 -79.682999
-9.2790012 61.130569 -43.952377
-8.5670452 -97.371422 -99.063255
-8.9684162 52.566879 -35.063545
-8.38766 -93.374619 -81.292244
-9.2582207 48.957432 -0.40175653
-8.6155519 -91.157631 -80.482414
-8.4061766 -88.139069 -107.42427
-8.1372709 -43.481266 -100.39725
-8.0625553 -35.497574 -50.314735
-9.078826 -57.941467 -58.432838
-9.7515173 -93.030983 -105.72474
-9.0170755 53.147755 -42.553616
-8.9323139 -95.814468 -95.227394
-7.8832879 -44.122677 -8.2311125
-8.7463646 -45.173233 -7.4072552
-8.6151428 -44.758957 -50.590714
-8.7122583 -40.220245 -50.654232
-9.0064526 -41.689823 -15.128334
-8.6410675 -98.355789 -79.009071
-8.3654499 -97.49279 -91.044655
-8.9406109 -40.607666 -10.531434
-9.5798969 61.271549 -36.929733
-8.4292955 10.721824 -97.944824
-8.908577 -78.472977 -86.663139
-8.5351667 -81.884903 -77.424103
-8.9024706 45.775257 -6.5041046
-8.241581 -84.149124 -110.18211
-7.6824203 64.761299 -78.366188
-9.9595108 54.629864 -11.470569
-8.7173052 58.84066 -41.190865
-9.8531132 48.617954 -8.8079796
-9.4681005 -99.093147 -97.25621
-9.0191565 -49.129185 -50.78223
-8.9230366 43.163475 -0.90621322
-8.6979132 -87.217751 -107.82641
-9.6498327 -37.623898 -97.640739
-9.6544437 18.172159 -97.386925
-8.6827946 -93.356544 -82.455254
-10.257327 -86.09185 -85.40567
-9.5546865 -96.858704 -87.535324
-8.2641115 59.436844 -4.9285817
-9.3720589 -98.607536 -99.825027
-8.7163229 -45.141029 -49.410675
-9.2387276 -68.358009 -80.678642
-8.7480927 -43.762028 -47.253841
-9.7967978 -70.230431 -105.12675
-9.7454805 -90.520882 -107.1394
-9.8470097 -84.010223 -82.385994
-9.8450489 -87.106133 -84.929489
-10.11064 -56.309925 -101.73646
-8.9160166 -87.418137 -83.070923
-9.2934914 -96.930611 -98.240974
-9.1439152 -20.616117 -49.481133
-10.70892 -59.068451 -62.490997
-10.89828 65.357491 -78.109756
-9.0504837 -93.11763 -83.600372
-9.7420435 -81.215569 -107.73576
-9.4688435 -92.812988 -106.80257
-8.930233 -53.49918 -4.1573801
-9.1970568 -40.075546 -47.205898
-9.5632372 56.672703 -17.603155
-9.4468365 51.082417 -42.546143
-8.9922867 -82.832199 -77.814003
-9.8811626 -76.897415 -87.701225
-9.2556629 56.751881 -90.812302
-10.382071 55.449486 -25.293091
-9.3327799 -55.707848 -5.6965103
-9.7453594 -86.376724 -109.5966
-9.3729525 -53.253456 -1.9295794
-9.1468315 -90.149994 -82.461113
-10.548605 -31.082399 -49.967567
-9.3840446 -57.258717 -1.6121662
-9.507021 52.25816 -32.019585
-10.454495 57.273216 -2.4222875
-10.374572 -91.382454 -108.56208
-9.5820436 -43.213436 -15.135954
-9.4163961 -96.041626 -96.137054
-9.2230558 -87.73806 -109.79709
-10.179905 67.174057 -21.676746
-9.9686022 -63.412395 -75.714371
-9.1775093 -90.614441 -83.104538
-9.2151175 -85.889999 -80.422096
-9.2482424 -88.960526 -82.852531
-10.832703 -85.231087 -86.10144
-9.817421 65.511932 -29.923691
-9.2612972 -82.872704 -85.065498
-9.3306303 -41.419647 -20.496426
-9.2684164 -87.215202 -80.534798
-9.7444153 -90.143044 -84.885658
-9.9065781 40.007915 -53.972485
-10.719485 -5.8387151 -96.464607
-10.858394 52.536652 -30.516428
-9.6766596 -42.322041 -41.376545
-9.6457672 -47.274937 -9.6730242
-10.28463 63.227352 -10.785928
-11.132842 -80.99411 -87.618385
-9.4017916 -2.010318 -97.09037
-9.6404352 -95.079491 -92.066223
-9.8940296 -38.160873 -19.455517
-10.513643 -93.770195 -90.864227
-9.6727228 -91.875572 -109.15779
-10.334218 62.041042 -44.109825
-9.4378376 -91.594101 -84.275002
-10.318138 44.610703 -94.279602
-9.5605698 -88.237061 -84.414276
-10.340623 -28.646841 -95.822784
-10.356347 -33.131069 -50.661846
-11.085489 -45.824257 -26.577131
-9.4762869 -84.777298 -80.338203
-9.4755917 -92.533669 -108.17699
-9.9871817 -85.450623 -110.18786
-10.038693 -52.339924 -9.1947279
-12.199378 -85.965134 -103.15804
-9.3637028 -39.877335 -14.120127
-10.386668 -39.757412 -34.901783
-10.002518 -48.431213 -3.4095526
-9.478446 -96.36187 -97.136383
-9.7279902 -71.769157 -83.895958
-10.51177 56.416405 -22.168314
-9.8676605 50.684399 -35.370472
-9.7988043 -50.712154 -3.2110732
-10.056114 -45.367313 -7.9188581
-10.567245 -47.681396 -48.20636
-9.6221514 -91.995224 -84.758759
-9.8872843 -95.141083 -102.70599
-11.162549 59.413811 -88.313278
-10.652687 -41.254108 -8.1896095
-9.6112566 -88.669296 -80.051003
-10.529577 31.913889 -60.335903
-11.216379 -15.597871 -95.623619
-10.63291 13.999842 -51.058994
-10.831001 -93.126968 -88.560982
-10.690759 49.575832 -1.7990568
-9.804244 -66.147751 -82.554085
-12.742642 56.677753 -13.488802
-11.31738 -45.94136 -13.370245
-11.132563 61.93454 -37.156036
-12.270681 35.941441 -55.902599
-12.11428 52.176064 -0.98110777
-9.8415499 -93.431648 -104.93931
-9.7363462 -89.866699 -80.122902
-10.357425 -60.713898 -101.0866
-9.6330004 34.927113 -96.462341
-9.766407 -88.293701 -80.708099
-9.0158672 -48.658695 -6.5002007
-10.178539 -44.631336 -43.596188
-11.203365 64.79953 -80.948135
-11.088461 -49.713924 -49.838146
-10.361155 43.310955 -3.3664987
-10.562789 51.30093 -1.4429328
-10.235288 -91.543427 -107.50572
-10.748055 64.800537 -14.738713
-9.9053841 -86.530029 -81.103889
-10.272837 -40.659756 -27.677628
-12.221158 -83.381447 -82.843246
-10.428592 -90.577744 -86.082512
-11.430175 -83.351974 -87.153267
-10.106495 49.12867 -8.1970835
-9.9316568 -87.660698 -81.075798
-10.418719 49.525551 -38.533112
-9.6432123 -64.483589 -78.956474
-11.086478 -37.836555 -33.904987
-11.065492 -56.080193 -0.94631636
-9.9813595 -91.924301 -107.434
-10.681439 -91.988899 -106.57404
-9.987257 -90.491501 -80.696602
-10.023307 -91.2164 -81.268402
-12.043797 64.326439 -55.039436
-10.259655 -70.429108 -84.800911
-11.78302 7.9406357 -50.305264
-11.0612 -21.432039 -95.546585
-12.459016 -89.703491 -112.46965
-10.081407 -89.131798 -80.459396
-10.155973 -78.527863 -105.5771
-11.427811 -91.29821 -111.67497
-10.93939 -95.440117 -99.02433
-10.22113 -96.180984 -97.086983
-12.042901 -6.5234976 -49.162086
-10.911 -58.456348 -3.3520343
-10.145209 -91.749397 -108.047
-11.623932 -49.494217 -98.649132
-10.360565 -39.371151 -10.651181
-10.071829 -35.621391 -49.698147
-10.095493 68.323341 -26.745628
-11.30291 6.7861471 -96.439529
-11.832114 62.660965 -7.347384
-9.8463535 -34.755787 -96.35437
-10.216208 -85.425903 -81.015602
-10.358311 -68.387642 -86.99659
-10.224506 -88.694603 -80.982903
-10.227609 -90.329803 -107.136
-10.428843 -78.205399 -89.232216
-10.891374 -85.57383 -82.218315
-10.247907 -91.944298 -111.05256
-10.354277 -42.272923 -28.99493
-12.316175 65.852333 -72.842339
-10.916538 47.861698 -1.0434133
-10.764392 44.125805 -3.6590765
-10.281841 -93.320747 -92.78373
-10.302807 -91.152702 -82.148499
-10.353333 -88.144035 -81.780441
-11.061195 -71.420822 -103.33902
-10.314707 -89.720703 -80.986801
-10.341507 -90.400002 -81.560097
-10.845325 -44.057995 -6.9992375
-10.364306 -82.1007 -79.767403
-11.433568 -1.6554338 -96.202721
-12.20497 22.519764 -54.944649
-11.050747 -84.32943 -86.546242
-14.189585 -91.669922 -110.56153
-11.547961 -91.480957 -104.17121
-10.771029 -91.67202 -104.34493
-10.408109 -91.271004 -107.33
-10.60358 -18.532368 -49.883877
-10.543672 -91.367462 -83.260437
-10.468065 -89.239532 -81.469185
-11.282026 -87.95018 -104.67651
-11.513288 -47.282436 -45.168545
-11.775911 -56.60096 -6.7174225
-10.799216 -49.111267 -2.8357732
-14.64351 -58.48193 -64.107819
-11.495256 -32.843231 -50.626015
-10.509107 -82.246696 -78.237801
-10.509506 -88.778 -82.498596
-10.835588 -74.548401 -88.712761
-10.767365 -78.858421 -103.68411
-12.783003 -89.332588 -111.24272
-10.675838 47.643654 -8.3168364
-10.535707 -83.375702 -78.653297
-10.706801 -93.617622 -94.484505
-11.291131 -89.173409 -87.318024
-10.554408 -89.450302 -83.110199
-11.294963 -73.388428 -101.95026
-10.135547 45.864033 -46.580086
-11.363615 -36.31089 -19.749788
-10.56561 -91.7789 -107.304
-10.982136 -90.769936 -94.344269
-10.586609 -92.031799 -93.539001
-11.578675 -91.564842 -90.567291
-11.64503 65.308632 -64.09021
-12.644011 59.475647 -3.2088935
-11.697458 -67.793434 -101.92496
-11.819387 -91.275742 -106.76455
-11.092299 43.906017 -4.7071109
-11.335797 61.173065 -5.001256
-10.923096 -87.568794 -86.428215
-10.64341 -90.234497 -106.872
-11.517452 57.509743 -18.169813
-10.806119 -76.415977 -91.97979
-12.351454 -83.749458 -108.31744
-11.169466 29.340189 -59.301304
-10.91092 34.110817 -59.41835
-11.58444 -92.436974 -100.14899
-10.836194 -87.957268 -82.543449
-11.166774 65.881699 -19.622791
-10.862183 -77.150757 -94.611008
-11.181495 -34.780659 -44.641602
-10.81328 -83.253525 -84.674049
-10.948098 58.215618 -3.3086276
-11.60426 49.994049 -92.096397
-11.207224 32.248852 -95.179565
-12.348329 -11.570807 -49.792931
-11.136017 -86.582603 -82.120697
-11.7556 54.973255 -90.224251
-11.094343 -45.864685 -3.6040823
-11.700554 -1.8851604 -49.168293
-11.357616 49.445 -35.50882
-10.774609 -92.457298 -94.341003
-10.740776 -92.597092 -102.40494
-11.134161 -37.805531 -28.297819
-10.807307 -90.265404 -83.798302
-12.034456 11.378662 -95.496742
-11.479346 63.048439 -36.306736
-11.214983 -87.160469 -110.42717
-12.031631 -84.587761 -109.26627
-10.83131 -92.983299 -110.073
-10.836009 -91.642403 -92.890099
-14.994619 -51.854633 -52.161819
-10.880609 -91.2342 -107.24401
-10.883307 -93.103996 -90.354698
-11.317032 -74.389221 -96.083862
-11.810597 18.550341 -52.913036
-11.640145 66.136879 -29.545748
-11.074883 -45.607914 -33.056057
-11.589054 -74.490196 -100.23631
-11.495202 -45.885475 -19.897606
-11.573741 -78.818909 -92.99498
-10.942608 -90.963501 -84.4189
-11.254864 68.305313 -26.548267
-12.536613 -45.293983 -97.669968
-11.576592 -33.267162 -49.240665
-10.805067 -93.267914 -106.02537
-11.441746 -89.733154 -105.76823
-12.214418 -38.410957 -95.133667
-12.51286 -84.208672 -84.987099
-12.361868 -35.752796 -93.684479
-11.693005 -72.838783 -97.053543
-11.842189 -31.704147 -51.599358
-12.74416 -31.77025 -93.204208
-10.955977 -46.894432 -11.426213
-11.10582 47.39389 -0.84282553
-11.122991 -91.708908 -107.08932
-12.267226 49.328568 -9.4793215
-12.237669 -43.909672 -4.8521132
-11.087408 -92.814301 -95.25
-11.757416 -52.616756 -1.3846793
-12.073203 62.366905 -41.03569
-11.951884 41.348629 -93.722511
-11.655316 -90.749062 -88.595085
-11.151414 44.471565 -0.94999045
-11.221757 -92.613846 -109.90997
-11.963588 -28.203039 -51.597897
-12.611718 62.852249 -83.828087
-11.159806 -82.6325 -78.9291
-12.083957 -35.446529 -37.215664
-13.061063 -53.105576 -9.6256409
-11.235814 -89.640404 -85.847618
-11.184709 -93.283401 -97.104401
-11.497148 -92.906326 -98.809593
-13.073205 -57.177429 -1.3273815
-11.192709 -93.049103 -96.182701
-11.196307 -88.944504 -84.466698
-12.107178 67.84803 -25.760696
-11.239909 -92.030602 -110.656
-11.565294 -91.322311 -105.42229
-11.758192 53.617947 -10.505059
-11.275908 -91.142799 -106.939
-12.80252 41.318974 -48.796024
-11.335408 -90.979401 -92.2481
-12.316266 46.519138 -8.1097898
-11.96671 -17.383902 -50.535629
-11.898808 -90.612762 -103.33593
-11.413708 -87.7005 -87.399803
-12.118572 -86.503929 -88.949669
-12.13844 -28.662754 -94.304642
-13.003098 -81.254387 -103.65247
-12.122678 -90.832451 -99.49987
-11.862446 63.044727 -47.651657
-12.057951 -78.84581 -97.909988
-12.46491 64.714912 -18.92482
-12.464804 -36.377811 -15.401746
-14.793242 -84.105179 -84.868042
-11.512709 -92.978401 -93.2995
-12.123404 57.024372 -22.314411
-12.562787 -48.363209 -47.582157
-11.530107 -86.977501 -82.596397
-11.791064 -91.664749 -96.284309
-12.158189 63.722931 -34.609756
-11.990891 -79.679146 -100.94477
-11.580207 -83.862701 -79.689102
-11.97035 -64.11573 -99.658913
-11.982673 -87.782646 -95.370789
-11.606408 -89.465897 -95.1493
-12.201957 12.073728 -51.335781
-11.915306 -90.737228 -106.08824
-12.145071 -90.960625 -97.841591
-13.564572 -50.324829 -95.965324
-12.304227 -47.694035 -11.608268
-12.000389 -89.870056 -92.570168
-11.75688 -88.814194 -104.64172
-11.748735 -89.266243 -94.512749
-12.295116 -90.489967 -102.7276
-12.943267 -85.051064 -85.069298
-14.724938 53.459896 -0.92582166
-14.330445 -54.573666 -55.762348
-14.196756 -37.496437 -12.562122
-12.045679 -87.809357 -103.08243
-12.106331 -89.352074 -89.673447
-12.308083 -35.802731 -19.523979
-11.801608 -90.542397 -91.497498
-12.690261 58.374256 -20.698727
-11.838408 -87.821198 -88.448097
-13.174308 -56.462784 -96.658554
-12.197626 -67.523079 -90.480888
-12.684948 49.502563 -1.021325
-12.912382 -89.686516 -102.45216
-11.98711 -90.755898 -104.69621
-12.293891 2.5273945 -50.005726
-11.95394 39.087097 -52.753586
-12.300602 -36.202084 -29.84684
-13.151787 -59.798199 -95.509712
-12.039498 -90.407364 -90.737511
-12.838222 -39.894459 -8.0079899
-13.063406 51.235477 -1.1874059
-11.943008 -89.7621 -95.920799
-11.897553 31.280422 -59.186863
-12.219985 -87.397278 -83.778419
-12.478724 -85.588997 -90.379959
-13.181674 -4.2452822 -94.721069
-12.356944 -12.468981 -95.077377
-13.443738 54.101765 -28.802074
-11.335855 -58.412384 -1.3572828
-12.543037 -92.382729 -108.86369
-12.073994 -76.836319 -99.227219
-13.014192 -80.656303 -92.670059
-13.095949 -84.77066 -92.391853
-12.951939 63.097149 -9.7565384
-12.042373 -92.202896 -110.10075
-12.043509 -91.027397 -105.88
-12.878803 37.766617 -92.980186
-12.475047 64.769173 -80.454208
-12.060009 -92.010803 -92.598701
-12.382223 -25.203728 -51.997292
-12.163633 -90.179146 -105.44981
-12.123507 -92.781898 -94.9674
-13.29704 -62.098644 -95.32534
-12.424685 -80.294121 -95.406799
-12.806488 30.409506 -92.972794
-12.505342 15.009497 -52.303577
-12.656948 -89.55069 -99.745049
-12.231762 48.125618 -0.39430517
-12.773515 58.342869 -17.181721
-13.995716 -60.369781 -79.535919
-14.406874 -84.624496 -105.0202
-12.821348 -69.087151 -96.821671
-12.237232 -87.96357 -89.781944
-13.169445 -47.764565 -37.973679
-12.920199 65.23954 -24.542955
-12.272125 -60.344681 -68.782486
-12.546618 64.207848 -29.603321
-12.970013 -45.164238 -3.5758688
-12.383618 -88.880913 -103.55244
-12.6879 -88.299881 -102.91763
-12.336226 -90.519028 -105.25134
-12.283408 -90.356903 -96.820602
-12.288907 -82.544701 -79.300201
-12.289009 -91.4468 -110.77
-12.821722 -58.542667 -3.6267505
-13.673203 -52.338379 -2.5355494
-13.445229 44.848408 -0.35427845
-12.317582 -86.394066 -95.475166
-12.363909 -88.432999 -96.3339
-13.001339 -87.81562 -97.553108
-13.036525 -31.683544 -48.204506
-12.372808 -91.536797 -91.852097
-12.636109 -87.211884 -93.080681
-12.052366 45.783005 -42.487389
-12.598642 -87.470375 -84.660843
-13.089314 -46.444275 -20.993345
-14.121529 63.232643 -11.627563
-12.88124 63.922653 -33.226856
-12.752911 -68.975334 -99.595566
-13.342613 42.517609 -2.7213507
-12.468307 -91.367996 -90.964302
-13.109419 -32.05595 -52.954868
-12.475345 -92.19445 -103.95531
-13.288343 -36.941376 -13.309454
-12.701497 62.804401 -32.565823
-12.394107 43.637432 -45.914223
-13.82133 42.875732 -0.73069137
-14.900786 -49.738708 -1.7450356
-12.522608 -90.035004 -98.436501
-13.280626 -50.51265 -2.3296583
-12.840859 -80.993004 -99.849792
-12.648017 -89.720551 -103.70284
-13.356688 -54.114643 -1.6467547
-13.588248 -46.3004 -14.517155
-13.42198 -84.69606 -81.960907
-12.211787 -90.415688 -100.66806
-13.36086 21.576086 -92.643631
-14.441376 -59.392643 -71.036629
-12.62381 -90.001801 -103.006
-12.630907 -83.024101 -81.167297
-13.276942 -30.182695 -54.221691
-12.634543 -85.397842 -95.954239
-12.689209 -89.259102 -97.387703
-12.781363 -86.156044 -93.879425
-12.698009 -91.352699 -94.237801
-15.369296 -85.023491 -84.31723
-12.927597 -91.38327 -110.34754
-13.13894 -65.915962 -97.915253
-14.031198 -47.407024 -29.496305
-13.678258 44.373398 -5.893599
-13.017365 -18.027544 -51.546673
-12.78941 -92.775002 -107.611
-12.847195 30.247591 -57.757038
-13.792981 58.72121 -2.0447001
-13.047317 -84.505417 -96.949951
-12.947527 44.271378 -91.963043
-13.109159 -56.992825 -5.4462419
-13.882957 -32.497631 -42.709927
-12.853109 -89.461197 -110.017
-14.91806 50.787189 -1.4969833
-15.637048 -89.887459 -112.08066
-13.8692 62.935177 -48.95142
-13.784973 -2.8822405 -50.823147
-12.90731 -89.015701 -102.68901
-12.917506 -83.085297 -80.361099
-13.740191 -31.845673 -53.557266
-12.923087 37.815502 -54.006851
-15.058179 -85.890106 -107.39832
-14.79135 -27.834131 -90.974731
-13.911914 -53.470448 -9.2691126
-14.825832 -38.955338 -8.7680922
-14.034564 51.056747 -9.2996674
-13.00516 -92.24617 -108.35442
-13.364445 -84.001228 -93.549889
-13.266664 -91.788414 -108.82844
-13.089378 22.677118 -55.497677
