# .PCD v0.7 - Point Cloud Data file format
VERSION 0.7
FIELDS x y z
SIZE 4 4 4
TYPE F F F
COUNT 1 1 1
WIDTH 1574
HEIGHT 1
VIEWPOINT 0 0 0 1 0 0 0
POINTS 1574
DATA ascii
19.588049 -75.345398 12.446538
25.535933 -76.485374 15.757357
21.60927 -70.779228 13.299597
22.5369 -67.671692 13.879577
20.488932 14.924698 12.645394
21.0224 -73.629906 13.569541
17.624205 -72.049484 10.687431
22.156559 -76.859291 13.430529
18.204914 -73.435638 10.628861
20.076666 -73.621674 11.64716
44.646488 118.41409 27.645735
19.738997 31.958931 11.833983
14.558735 -17.844143 6.2718053
31.267582 -74.954094 20.111229
43.931934 116.65553 27.735188
27.271467 -76.07048 16.791958
19.241093 -53.617535 10.997286
47.427544 120.27612 29.548571
22.290867 -78.019966 12.954831
42.803665 107.71161 27.000757
41.817749 97.522614 26.30913
50.780983 -18.848694 31.805305
22.270014 -72.72789 12.415874
22.180267 -77.152313 12.529664
15.759778 -11.731539 8.1731443
48.416454 117.75644 30.115253
40.726009 92.390694 25.589287
51.827641 -15.963177 32.388813
53.771053 -8.1479359 33.556858
46.425087 120.43958 28.775295
38.362396 -63.001831 24.908386
13.877321 -28.370176 5.6144929
17.539377 -42.093193 9.6984797
20.594021 -74.098129 11.071917
48.132439 112.19801 30.320135
35.458046 80.940651 22.06356
17.6064 -7.6540694 9.120882
14.175251 -30.812357 5.9648848
22.77758 36.240955 13.048854
23.683561 -70.90506 13.891251
47.171169 100.72871 29.671906
33.461731 76.314491 20.773426
46.787663 95.561798 29.381624
20.352373 17.283012 12.044547
30.359228 42.568962 16.272758
19.282591 21.721767 11.171414
31.411978 69.325691 19.392319
43.81115 39.460567 26.672495
23.967335 37.641998 13.94519
21.818638 -77.872902 12.972489
46.861244 35.119316 28.83288
45.399899 88.919312 28.443665
30.148115 61.705097 18.546675
22.737188 -67.209518 13.691532
40.859978 43.107346 24.96312
18.983841 23.329603 10.292184
43.050613 82.441307 26.868683
30.011148 53.692028 18.304255
40.364605 77.540871 25.114296
23.99316 -69.669708 13.835168
23.300716 -64.712143 13.31781
21.363508 -70.144745 12.474754
38.569965 72.901802 23.905344
30.232611 43.270748 17.518459
37.254532 67.423256 23.00889
30.240723 49.686596 18.457468
24.350567 -66.359604 14.563743
36.677654 60.549065 22.591906
21.30266 9.9057646 11.71567
30.641378 44.260807 17.932238
23.391302 1.9700857 11.537565
20.465399 -72.912598 11.361014
20.954506 33.682034 12.027969
30.571232 45.734188 18.516802
36.981464 54.416443 22.633389
21.389614 12.639868 11.88455
48.15374 119.24473 29.480488
21.197237 9.0718431 12.425227
23.956844 -65.03476 13.496639
37.420227 51.624283 22.886621
22.767073 -68.543381 13.114696
39.631107 -66.078438 21.241579
15.057343 -14.423393 7.2380924
21.112535 -71.358131 12.34925
18.950661 28.308386 10.621663
22.152197 -69.076393 12.642182
18.721411 -72.774994 10.222981
27.765648 -75.510551 15.245306
45.714798 -29.484285 27.39662
18.779589 -64.35672 10.875668
22.410288 -68.583786 12.419207
26.789295 40.18108 15.512712
43.784069 111.16667 26.793417
38.299744 -48.421444 22.723639
42.465454 97.777328 25.860632
26.475128 -75.875443 14.9139
45.94968 119.68723 27.790302
19.84594 -74.125534 10.393287
41.552853 92.991524 25.211971
18.831882 25.537529 10.051117
14.376556 -20.518614 5.7858224
19.47781 -68.942131 9.8784628
39.840034 87.788795 24.038439
19.516911 30.225193 10.695526
38.335167 -55.790176 22.431652
48.191273 112.48888 29.424192
38.587269 85.053215 23.199432
23.859972 -66.69101 13.63564
19.187603 -45.142834 9.483119
17.607954 -39.305771 7.9478283
36.989861 -70.818565 19.870443
37.545296 -70.421761 19.942953
36.179516 80.849358 21.538292
46.811356 95.819038 28.430094
23.891296 -68.059494 13.423452
39.333324 46.324799 23.370531
23.394369 -76.827415 12.543615
24.37594 -66.445366 13.838606
19.908487 17.648693 10.984307
38.898003 -45.419781 22.644827
38.116947 -69.248734 20.860888
14.431623 -24.720387 5.0466318
20.932188 -72.584084 10.262593
33.834862 75.046036 19.935301
45.627026 89.758446 27.565403
39.711689 -59.721371 21.835571
33.568073 -74.04142 18.104757
15.768114 -34.621063 6.2242126
30.626726 53.519512 17.714373
21.836279 -76.963593 11.336794
51.763599 26.68215 30.675051
31.868864 67.298042 18.537954
21.581953 -70.72229 11.738721
30.677637 -75.796181 16.53974
50.651421 29.239967 29.899294
30.968864 61.074341 17.984741
43.182693 82.797661 25.882816
49.41972 31.680664 29.062811
43.23674 40.738716 25.013762
45.449875 118.26206 27.226892
20.57971 -72.770477 10.124085
40.377197 77.695534 24.040665
20.247711 15.317099 10.944566
22.634321 9.3222275 10.995941
20.688314 13.301095 10.788864
47.214745 119.83061 28.371469
41.640396 -39.103916 23.253115
38.246166 71.760719 22.597061
22.081549 -67.758255 11.392649
23.459534 -70.748611 12.69208
31.263815 50.902466 17.383671
19.442495 -56.23288 10.082831
20.337591 31.801014 10.772224
37.197647 66.570503 21.821053
48.175041 117.93639 28.741768
36.716331 59.803253 21.402575
22.268772 -71.210236 11.197932
29.914734 -75.880569 15.553986
31.405064 46.424023 17.864706
38.329048 -49.873833 21.277954
20.504265 -69.193176 9.3872671
19.244556 28.249569 9.8029785
44.631325 111.37646 26.453121
22.226284 21.9034 12.000813
21.163546 -76.003426 10.261497
21.801407 34.007248 11.328539
46.26749 118.52724 27.180239
22.264212 27.347441 11.930271
25.597404 -75.653938 13.659836
38.334953 -53.202095 21.158377
22.446638 23.684431 12.062746
22.194614 -72.174316 11.541964
43.278172 97.368462 25.463745
23.796904 1.1852652 9.8742466
20.096563 -75.391457 10.38425
20.12299 -59.485214 9.4382219
23.397081 4.5417571 11.359194
37.229897 52.832672 21.441849
47.710732 118.47119 27.957682
21.535223 -3.5447273 9.4469995
19.733879 -64.111168 10.077838
22.160542 7.2123199 11.573981
42.245857 92.219177 24.696449
40.484642 -62.762482 20.728756
22.926815 -2.845268 9.4701195
47.937771 112.38621 28.369219
26.854048 -74.643127 14.282946
23.225378 -1.6129069 10.061178
51.481216 -18.810741 30.052574
47.041252 118.52224 27.406879
21.347143 18.6525 11.12421
31.035091 55.31863 17.599236
39.987221 85.755089 23.130201
20.016533 -48.715206 9.7449665
23.025471 -69.518532 11.866476
38.236813 49.535568 21.90126
46.541759 95.92662 27.319475
22.436697 29.31064 11.567877
40.107719 44.756245 22.58687
39.154366 -67.625496 20.970606
55.98447 7.1545405 32.621284
55.638206 11.59271 32.352398
23.825668 -70.2276 11.825832
25.995623 38.935287 13.813835
56.03817 2.8835027 32.675117
36.784092 79.969292 20.877851
52.554306 -16.055733 30.378368
15.055388 -15.767156 6.4584808
40.336586 -65.089859 20.443371
55.779217 -1.1663046 32.471916
55.05426 15.941377 31.881145
45.322048 89.94207 26.395031
55.176117 -5.0599599 31.993834
54.493248 -8.6748381 31.561489
53.623371 -12.469777 30.991037
21.424025 11.131711 10.474278
22.106356 -71.111229 10.431551
54.244171 20.192892 31.201004
34.560318 73.841019 19.325434
43.09267 83.455238 24.835014
32.849667 67.098969 18.157125
45.613258 111.69944 26.373131
22.480572 -67.946136 11.406051
27.721109 -74.206207 14.380322
41.144096 43.256443 22.635376
24.84651 36.951313 12.736497
20.896687 16.425068 10.401085
19.929235 29.9963 9.7237587
40.055038 77.87709 22.786787
32.124279 61.100567 17.617464
53.256943 23.81386 30.345108
20.788771 -70.746307 9.5148563
37.924461 71.851112 21.322319
47.407494 112.47201 27.395741
21.93232 21.492594 10.937092
20.844622 -73.010536 9.4536057
32.245861 46.534569 17.462742
38.289463 -51.970116 20.431034
22.563623 23.693935 11.138442
44.196232 96.722435 25.302465
32.158653 56.673889 17.386715
17.809469 -9.2569942 7.0821371
36.818237 66.161636 20.479137
20.632868 31.149998 9.6499109
49.170799 -23.990772 27.736082
32.091618 51.85635 17.030247
19.234083 -7.4551363 6.8329587
15.406678 -14.043877 6.6644149
29.041634 40.948536 13.572658
46.58535 112.0992 26.691401
27.402353 -74.004288 14.191573
32.527473 44.915714 17.148172
50.934917 -20.541624 28.655069
27.731441 -73.19445 14.322236
23.137785 -76.128731 10.703825
20.971931 -53.535667 9.3798208
42.921501 90.875664 24.344034
45.977631 96.207794 26.285702
36.406639 59.653248 20.088074
22.658518 24.753683 10.590807
32.101345 43.874043 16.70133
23.372564 -70.711731 10.761438
41.694855 42.549892 23.814713
23.204861 -71.343826 10.545356
28.658461 -73.015343 14.964955
40.769764 85.005096 22.841845
38.962391 -55.606949 20.697895
44.754356 90.282463 25.348122
46.698833 36.784145 25.656235
48.491161 34.041584 26.956861
23.077873 31.469635 11.143432
44.394855 -32.614292 24.453356
36.933441 52.698441 20.032057
45.175961 96.626869 25.595768
28.748867 -74.476669 14.601449
20.197226 -5.8699145 7.6329374
42.749413 84.499207 23.914543
14.388556 -21.815727 5.5505681
39.296257 -46.280544 20.381485
29.246208 -72.95047 15.069819
37.793915 79.430344 20.7087
33.330105 -74.43821 16.582115
19.07984 -41.15089 7.8334851
24.103352 3.621944 10.814536
16.131477 -16.114641 6.0347986
21.682749 -66.265038 8.7985954
43.892387 90.490456 24.610664
26.279114 -74.59848 12.176841
20.88451 14.146767 9.7563152
22.612526 -75.621971 9.8761959
27.428083 -74.183731 12.860018
39.570244 78.463638 21.729534
22.975857 6.0562596 11.018684
35.663597 73.573952 19.209833
41.809834 84.687996 23.13835
28.156721 40.048805 12.706699
21.43438 -74.226173 9.2864313
34.023479 66.942566 18.093134
17.171616 -11.992352 6.9595289
17.38389 -10.80329 7.0411181
37.246071 71.849976 20.144505
21.828709 -71.556999 8.9775238
22.40517 -71.20507 10.190428
33.321617 60.135952 17.51317
33.006031 46.832352 17.256865
23.355555 0.09893252 10.29182
31.298962 -75.573334 15.351323
38.906025 79.260834 21.107891
16.260956 -14.878161 6.3764486
32.929302 51.674561 16.932802
38.002079 49.4361 20.448095
36.236156 66.707565 19.368975
29.897804 -72.905434 14.995366
24.184927 34.575871 11.44374
35.697464 59.077061 18.868385
36.758888 73.383354 19.596786
22.7948 -70.405701 10.620435
21.001232 19.064892 9.4209585
35.238743 66.959 18.521723
33.539776 56.490101 17.417376
23.014275 7.9346638 10.005688
39.919155 -44.30521 20.69092
22.383923 -70.684326 9.3132553
21.342916 -56.698223 8.6745214
34.598526 57.989231 17.898096
20.99362 21.026424 8.8707991
20.447412 17.480982 8.3272591
47.258747 -27.995754 25.259016
27.234638 37.867676 11.229583
20.397903 -11.371765 8.3464546
27.664213 -72.774368 13.504428
21.777702 -59.783337 8.333992
22.40819 25.41382 9.6773901
22.887766 26.782471 10.1338
17.678219 -14.18346 6.657198
20.995289 -45.751034 8.4589882
21.449387 -49.414917 8.8758392
21.191343 12.197144 9.1195393
36.275177 52.3759 18.734646
39.559387 45.12505 20.505768
33.909687 51.901836 17.110998
14.910567 -29.802151 4.735024
24.357571 5.4355903 10.252565
31.423414 42.817886 15.640252
23.231365 -68.272736 8.3028946
21.07667 23.505911 8.6361732
34.212685 46.190025 17.213875
23.143066 27.425095 9.3793259
40.453396 -59.008564 19.778313
18.416918 -8.8656492 6.9558215
23.84725 32.566254 10.631171
52.573013 26.64563 28.455061
29.903885 -74.58033 14.107645
23.891619 7.2865152 10.376225
43.305984 -34.342442 25.042999
20.882532 -7.6738734 8.101615
52.033302 -18.14739 28.349258
35.329163 50.895428 17.694916
19.398674 -12.437053 7.5358229
20.285849 15.868927 7.8329864
24.816706 2.6816249 10.305385
30.72905 -72.762428 14.464746
45.339397 38.873596 23.411179
40.406525 43.718182 20.632856
51.474667 29.173246 27.575056
24.896923 -73.41777 9.6713257
24.027159 4.6746893 10.626666
25.753778 35.00795 10.182754
22.195513 -74.670311 9.3382521
15.028326 -27.225426 4.3841071
23.011797 -61.191463 7.7718892
25.693367 -74.507721 11.294522
36.944424 50.187698 18.872505
38.913399 -70.259636 19.426437
50.249878 31.579948 26.66857
33.89817 44.297718 16.690838
38.246761 47.914581 19.555321
39.177307 -55.314861 19.064024
38.658703 -49.372684 18.753326
19.680113 19.249054 6.992425
16.48123 -18.302601 5.155643
41.774342 -40.929577 20.74382
21.106743 25.309839 8.2542734
19.563715 24.599985 7.0250378
35.362213 45.950584 17.39901
40.213913 -67.656158 19.870281
15.977201 -23.308615 4.2243299
37.385117 -70.774216 18.267153
17.519348 -15.237 5.9792614
18.762568 -13.404773 6.5456262
28.060741 -72.652557 12.81139
19.263027 -39.001991 6.4365292
38.276199 -70.523903 18.8899
28.918844 -73.606537 11.350069
23.008879 -10.19715 9.4565811
21.554192 10.795917 8.4371233
22.788416 -72.705437 8.7839193
16.105232 -32.691742 4.6945825
20.269451 14.431326 7.3197861
37.666283 47.716267 18.699419
22.052389 -3.9215789 8.4358568
36.013729 -71.94899 15.970157
32.450176 42.927338 15.319455
23.311443 27.839722 8.5989609
37.277035 45.577755 18.147053
33.179741 -74.380608 14.589326
56.621002 2.6725402 30.337835
56.287552 11.305535 30.005087
56.451305 6.99474 30.925903
19.093752 22.795135 6.2852693
25.144789 32.724579 9.2905779
56.350636 -0.93288761 30.24367
19.976116 26.817375 7.1182027
29.568995 -75.309341 14.712725
5.3317728 -24.491732 -2.338937
38.919357 44.763714 19.307493
55.820366 -4.4012966 29.775269
55.747623 15.616407 29.555719
55.157101 -7.9848657 29.239149
20.751072 -41.487404 6.9688501
21.313526 -11.021438 7.4521198
54.150318 -11.838 29.310097
20.282701 -6.9364161 7.1096387
23.165562 -8.8991003 8.568716
23.595146 -70.282257 8.641571
35.327808 44.164841 16.794725
5.377811 -21.761738 -2.4720695
4.048954 -24.089327 -3.4488842
28.358107 -72.592491 12.523686
31.792532 -74.591438 13.247516
53.379051 -14.654808 28.049292
17.68689 30.149857 5.2719045
17.635708 -16.154074 5.309989
17.233116 -35.041229 5.1800423
54.969242 19.79966 28.906521
17.659019 29.091272 5.2129173
45.244785 -31.617516 22.545065
6.8158197 -22.62723 -1.5096421
21.936481 27.566696 7.8349223
38.473106 -52.22731 17.817421
25.264193 5.7280054 9.8786716
38.459206 -50.749775 17.497824
24.806391 3.7398932 10.206231
3.7641871 -22.5158 -3.9087322
22.937433 -53.455875 8.2045546
15.940398 -29.560843 3.9824107
41.277073 -61.486954 18.586578
31.195953 -72.418739 13.343517
31.065647 41.701149 13.498993
26.030718 -7.454627 10.214586
6.6434221 -24.624125 -1.9853981
44.455643 -33.467628 22.088875
24.594889 5.9883299 9.4357224
54.046108 23.232908 28.051285
25.483648 2.2133648 9.7475748
5.017118 -25.524399 -3.0135994
43.668148 40.604 21.304783
36.990414 44.201111 17.558472
20.635927 12.061279 6.7279696
42.910538 -38.187767 20.967216
8.0525837 -21.9876 -1.3208083
18.912516 31.64669 5.6168036
38.328533 44.149876 18.403528
26.9925 -73.490074 10.478855
17.876738 27.879808 5.1813154
24.144962 -2.5546131 8.8918715
28.711414 -72.47184 12.289239
22.608463 8.850606 8.3797922
16.253397 -26.016703 3.771426
22.914564 -47.035286 7.8418074
29.550997 40.371487 12.023213
51.369186 -19.606554 26.1367
30.893925 -74.019455 12.961744
8.1603584 -23.002747 -1.5022005
23.284464 -49.526997 7.9732957
23.254034 -8.4169893 8.5920458
20.661833 29.095194 6.732367
39.527653 43.445091 18.806345
3.9912283 -24.766069 -4.0943027
41.04813 -63.356602 19.393272
17.927813 31.549009 5.1951408
19.71118 14.578574 5.8235607
24.09387 -5.586586 9.1134071
50.119122 -22.209011 25.534395
25.365505 -6.9800382 9.5397367
25.288996 1.637033 9.1972284
19.318132 -14.009695 5.421021
38.342876 -70.291229 18.267849
23.786297 -56.740047 7.5337834
7.7920251 -19.120935 -1.7026117
24.736483 -1.37507 9.0259037
22.595665 -5.6174564 7.7789702
27.348696 4.0240569 9.4312782
33.662418 42.937836 15.174685
22.756197 -45.299347 7.4662127
5.3316603 -25.997269 -3.6991208
19.214758 17.169029 5.389327
16.338541 29.469038 3.6553464
48.61338 34.444908 24.945347
39.758549 -45.277611 18.717979
21.628717 -9.5401497 7.2823081
24.90439 -70.75985 8.5701666
26.651907 -7.3920522 10.552028
25.706177 0.98135793 8.6443701
8.9294472 -19.448143 -1.4137101
47.975662 -26.895824 23.644266
29.145802 -72.303963 12.110979
31.455837 -73.541679 11.766321
6.7968321 -18.503523 -2.3819857
18.72616 23.51053 5.2611346
18.593878 24.520041 4.7409692
6.6777081 -17.267002 -2.4039059
6.1098413 -25.856524 -2.9997954
21.612585 9.9446955 7.1357527
38.928471 -47.599709 17.677628
22.420061 -11.215073 7.1823792
21.011646 -10.766639 6.7541056
29.606026 -73.199341 11.55762
25.564966 -72.267426 9.0883598
41.608173 -42.294064 18.605099
7.5624256 -24.32995 -2.0074222
22.268761 -5.191751 7.0283499
18.469889 -16.552723 4.5865669
16.715 28.539558 3.5489581
11.461898 -14.497154 0.073553137
25.38685 -3.2003334 7.8545699
18.866268 34.007404 4.839314
16.960312 -32.1082 4.0281467
24.752312 -6.798213 8.6732798
17.274698 -10.924509 3.9155719
4.6669588 -19.306534 -4.5730572
6.471271 -16.780712 -2.9243162
41.050877 -68.169624 19.281115
17.836899 33.663551 4.3471174
4.0318222 -23.278776 -5.214829
16.677881 32.39978 3.6025324
25.815739 3.1632025 9.7076931
27.972906 36.48354 9.3894482
17.898325 -34.670994 4.4953866
41.417751 -65.692276 18.944071
22.526995 28.78681 7.4033737
18.200756 -9.8638048 4.4055314
5.9537978 -18.082596 -3.2816198
40.511276 -70.577431 18.369654
14.834402 30.447435 2.0572662
11.581354 -16.592913 -0.1620336
16.47246 -12.047192 3.4287579
21.917423 30.521099 6.4701848
39.442005 -69.813454 18.263796
23.234253 -9.0184212 7.9789457
18.227011 -20.613586 3.6889408
6.9620509 21.730457 -2.6628485
21.467445 -8.3124924 6.5142398
8.9779129 22.243153 -1.4626496
14.497562 28.274992 2.0793326
25.467314 -4.6110792 9.1633673
21.623913 -11.608637 6.7975578
41.479782 -70.501068 18.822695
6.7966533 22.531473 -2.9757028
31.064295 -73.329727 11.926151
42.812981 40.718117 19.298822
17.344589 -12.718491 3.8667672
17.590988 27.964901 3.9006476
18.610306 25.49448 4.0820856
6.2948389 19.165319 -3.1397119
23.228128 7.8338771 8.0275154
3.9542575 19.056309 -4.9576707
4.5218806 16.769825 -4.633338
11.596524 -13.00345 -0.18652989
23.807606 28.687838 8.747427
54.549072 -10.92071 27.330986
31.090908 -72.110077 12.710176
7.1893039 17.94521 -2.8838222
6.0892301 16.682583 -3.668746
21.545595 -6.1003089 6.4244461
5.2001028 20.70999 -4.156651
9.5113306 -19.365887 -1.4082533
24.01202 28.874111 7.4458327
30.362101 -71.953285 12.200639
11.480272 24.911615 -0.091702327
12.808006 -15.07142 0.70828104
28.603966 -3.492367 10.300385
20.944229 -39.748543 6.0141411
37.146461 43.165253 16.531921
8.6293278 19.927345 -2.0795019
6.5990043 -26.004169 -3.3611922
38.538704 -69.66256 17.443428
9.8454866 -14.223 -1.3830308
40.790062 -58.600628 17.92989
56.741417 6.1363201 29.360613
15.95025 27.741268 2.8133287
4.576108 -19.42807 -5.2855802
12.730804 -12.79665 0.73525584
3.7862062 17.694777 -5.4010229
17.006063 -28.063801 3.4687464
52.577747 -16.619682 25.707041
10.716864 25.735706 -0.74221373
39.520706 -68.472931 17.804335
16.659124 33.892677 2.8119638
18.041956 -8.8910847 3.5558939
12.420489 28.092903 0.17947362
34.709984 42.34621 14.432125
7.0886593 -15.999728 -3.3365161
23.428545 29.460356 7.1336756
7.0080652 23.567568 -3.34324
42.445183 -40.464912 18.939142
24.327005 -64.354988 7.4810514
25.970675 -67.564911 7.5943432
5.3707876 -25.632601 -4.7208829
22.313875 -12.336319 6.6916041
17.223629 -13.708781 3.3677084
21.001337 34.81506 5.1075463
17.670315 -23.753962 3.3989966
14.303113 -11.134541 1.1869122
24.40979 -53.99205 7.6264901
45.983971 37.989414 21.906063
26.532692 -4.8287964 8.986578
53.358303 25.517635 26.027819
10.118579 26.502895 -1.7373638
21.479927 9.4619684 5.2618141
4.594563 -21.432018 -5.7869453
7.9818473 17.025959 -3.1546991
22.674349 -10.7213 5.858469
8.9653044 -25.54291 -2.6885431
22.966454 -41.275776 6.0857892
38.460846 -52.58419 16.430902
25.010391 -4.5623393 8.1608076
6.4320674 -16.932598 -4.1855469
9.3615026 -22.651865 -2.0715714
15.314843 26.43688 1.8755195
19.20129 16.836405 4.4808016
27.620434 -4.5450501 9.972209
20.279461 11.882639 4.8496509
12.021813 23.67137 -0.12520087
40.885216 -67.804291 18.016886
51.640606 29.317007 25.501698
19.641773 14.02322 4.5167246
6.5674949 -27.19248 -4.2017345
32.074364 41.230755 12.622769
44.278496 -71.452454 17.915419
24.47271 -4.3961196 7.1309776
21.958689 -6.8588047 5.788908
28.901897 2.9974184 9.2785587
39.204411 -55.29319 16.507986
7.5597382 -26.853598 -3.47542
17.63623 -29.919001 3.4215574
48.972061 33.960003 23.76965
27.443068 -3.7637088 9.2492819
13.38146 30.305399 0.2060907
23.62689 -10.371254 6.5705891
56.551449 -0.84846359 28.320688
27.216299 2.7444284 8.964612
10.86385 -21.393736 -2.5876751
7.148448 16.438078 -3.6263788
5.4497867 -26.82597 -5.2483187
25.168144 -58.60511 7.1234865
23.367262 -9.6036673 6.7504869
9.7363329 -13.717688 -2.4058392
5.0333629 15.410859 -5.5343328
38.945236 -68.171486 16.700417
39.000248 -66.546761 16.643452
10.42871 20.382717 -1.8388882
4.9154916 -23.973164 -5.9733386
29.770414 38.453468 9.9148722
29.618874 -72.353912 9.484993
25.838581 -64.560234 7.085053
3.958385 16.881823 -6.0747972
20.491367 -37.196655 4.6935072
18.286549 26.993317 2.7195013
18.285137 35.460407 3.5520995
38.976173 -46.425549 16.264708
39.542984 -66.943115 17.110842
17.815008 27.551142 2.6556067
18.410316 -32.620663 3.7057762
5.0167336 21.474579 -5.6232386
23.521036 7.0788379 6.7442045
45.580723 -30.869314 20.511707
16.820784 27.393312 2.1953878
25.081356 29.035448 7.4746075
25.62077 5.3139777 7.6636343
13.388422 -16.589283 0.059446882
24.509436 -48.29108 7.5591235
28.445271 2.342391 8.2492332
33.590034 -73.627754 13.541633
14.79785 -15.365807 1.2214574
55.508202 -6.8367653 27.363022
12.591129 23.212574 -0.40582263
56.837742 2.6304848 27.657875
7.9430895 -15.216572 -3.6842604
10.702326 -20.034506 -2.0670183
25.530254 -47.364357 7.2858272
21.931154 -13.117455 5.7360625
27.870201 -3.4264445 9.6732397
19.044788 22.370926 3.3335214
26.569532 4.28302 8.8003511
18.246378 -25.350464 3.0836005
6.6177225 15.728441 -4.5129528
20.176586 36.908409 3.9052165
24.650375 -44.892567 6.967948
37.509689 42.079613 15.27354
22.672163 -12.697206 6.0386662
42.529678 -67.623314 18.567158
23.704826 -5.4766364 6.3758063
44.772873 -32.813488 19.658463
41.347408 -68.589241 18.221907
19.498856 15.869094 3.6008503
27.228329 -1.5094608 8.012105
5.2975802 21.8701 -4.8681293
30.70203 39.98032 11.004757
22.992243 31.153934 6.2136102
23.49312 -12.203877 5.9410887
39.849026 -44.54525 16.629446
25.601406 -54.151436 7.3589358
7.55267 24.843784 -4.1248684
12.04654 -11.909772 -0.88709044
10.434784 -23.71644 -2.5751894
16.441814 34.653748 1.7431519
4.0977058 18.838942 -6.4790955
6.2716551 -17.085947 -5.110456
27.883638 1.9242629 7.9732847
36.269573 41.94775 14.394193
10.21381 27.508238 -2.6991315
25.032045 -4.4255924 7.0535088
12.979804 -18.37282 -1.1250402
14.171167 31.983063 -0.10148026
36.56691 -70.959099 14.343119
20.911366 -6.4282961 4.0166559
45.049641 -70.438843 18.048763
28.122644 -71.143211 8.4078979
38.636883 -64.703506 16.116053
13.96989 23.980145 -0.42675731
18.992208 25.51054 2.3346364
4.9254413 -25.577635 -6.2872505
22.441338 -11.892269 4.6906934
53.725208 -13.216679 25.22834
41.926899 -63.19466 17.715919
24.863028 -5.3007817 6.416522
16.399981 25.899628 0.57589895
41.511223 -60.06567 16.60936
25.521276 28.881563 6.7576957
18.988422 -27.098774 2.8737922
37.874744 -64.41777 15.253023
29.18672 -1.93028 9.6012888
52.131981 -17.123947 24.001371
19.009966 23.609873 2.6583779
18.325916 36.263065 2.5732074
50.245125 -20.987598 22.833633
48.255901 -25.679409 21.70042
56.576252 10.7329 27.672018
6.6693492 23.611759 -5.6564302
56.076862 14.9985 27.337706
15.48404 -16.066511 0.62934029
47.56934 35.65564 21.655174
55.342094 19.0515 26.79594
14.211987 -17.08778 -0.35563371
10.287653 -24.791885 -2.9774437
4.8238688 15.813002 -6.1820273
35.752197 -71.064034 13.004101
27.244659 31.165852 6.7114997
56.845856 6.5571599 27.719378
22.130659 -13.864574 4.7874341
21.450792 -15.134656 3.706378
26.020655 -49.09724 7.3384881
54.499027 22.207664 25.375475
6.3379235 -27.317617 -5.5444198
40.965672 -58.592319 15.618896
8.5759029 -27.27524 -4.4671369
40.029041 41.037258 15.905411
7.2010732 -27.613842 -4.821589
19.123102 -30.255901 3.1175139
50.435699 31.364454 23.429626
20.43976 -20.037788 3.0557592
19.50005 18.519863 2.79299
24.887388 30.017002 6.3504324
52.320217 27.771 24.634434
33.015476 40.760822 11.89931
21.257847 -35.473248 3.8865721
11.382446 -20.356998 -2.6341643
24.123463 31.188255 5.896349
37.668526 -69.660645 14.354029
29.169775 2.7568467 8.3230991
40.217587 -65.114708 15.597101
9.4997911 -26.158058 -3.4921422
38.268299 -48.714809 15.142612
4.8476615 18.277666 -7.4560666
30.464092 -2.9171071 10.204318
21.106936 37.339951 3.7596319
38.299118 -66.791878 14.948384
21.987791 36.011105 4.5949659
28.18265 -1.3035619 8.0680523
23.6598 -4.3437858 5.3094683
20.256365 13.199778 3.2921429
27.271431 -4.09341 8.1680765
9.2776318 17.404808 -3.8093476
6.2005033 15.266067 -5.7278209
41.350613 -65.799057 15.849374
17.606276 26.903181 0.6408512
38.244881 -52.969296 14.829501
27.041897 -1.9153124 7.4721074
20.964504 11.124914 3.6992135
41.577309 -41.831905 16.675087
43.683514 -36.964844 19.284378
20.3689 -32.999771 3.357908
16.705969 35.188805 0.88601184
37.18391 -64.370201 14.37591
21.890263 9.2533627 4.3130221
42.901943 -65.278137 17.433353
24.005297 -10.184714 5.443172
42.461926 -40.29615 17.365562
5.3665371 -21.854811 -6.9125128
23.178368 7.3872499 5.3121996
25.164972 -42.106052 6.0739565
27.120153 34.287743 8.4296341
12.331686 -11.326489 -1.8332003
5.0366354 16.220291 -6.8550258
26.905821 4.4195614 6.8421373
5.3167696 20.05477 -7.3422637
5.1544952 -20.576502 -6.7563753
22.569347 -38.12941 4.6593471
30.195288 -1.947 9.7681179
55.291061 -7.212997 25.3522
27.42988 -2.8934114 7.4686689
39.132027 -64.01973 15.083309
24.264858 -11.509932 5.3587255
10.747867 28.320049 -3.0984659
6.6035924 -26.681219 -6.7183948
37.278149 -62.862614 13.335044
32.949074 -72.668083 11.460879
6.3576093 -17.258177 -6.3024964
39.163414 -55.774189 14.919994
27.301365 -62.018028 6.883831
20.337061 -23.267206 2.7432075
8.4475594 15.021692 -5.1938343
27.526415 -54.064919 7.2037973
13.250979 31.176811 -1.866547
41.987606 40.407688 17.35228
31.856136 39.692608 10.361762
44.795097 38.76775 19.854488
5.5745764 21.367559 -7.107461
24.061911 -10.475278 4.1783423
25.700544 29.034258 6.1479616
8.3516006 25.643633 -5.3217955
19.194355 36.791172 2.4033477
10.325056 -12.90596 -4.5871525
38.713188 -45.487431 14.54236
56.46452 -0.64983147 25.74209
11.116776 19.112803 -3.4351525
54.506561 -10.126359 24.608707
39.496063 -44.21769 15.116807
26.409035 -44.73539 6.8281631
5.8459115 -24.556713 -7.3593502
11.937016 20.343756 -3.6412857
46.109638 36.642357 19.488758
12.975658 21.85885 -2.9310944
23.126129 35.002426 4.7060828
5.9655032 14.418458 -6.8976698
19.968052 -28.5301 2.7678583
25.547455 -2.547893 6.2544427
7.0030756 14.360504 -6.151732
4.9934511 15.210066 -7.5888772
20.128685 15.396317 2.4654839
18.565182 27.474154 1.4096313
49.100815 32.930115 21.553061
38.325363 -63.53091 14.359495
5.9430737 -19.442234 -7.1376882
7.1053081 23.579929 -6.6004753
9.9128122 -26.044628 -4.6001439
31.67132 -3.0164244 9.7788439
11.085996 -23.678078 -3.8113844
31.328903 2.974304 8.8881388
45.604401 -29.839439 18.636429
18.059429 -7.6888399 1.6356715
29.304752 -0.43172777 7.9582853
30.945538 -0.86793095 9.5311213
22.185986 -16.812613 3.1080863
12.164239 -20.081877 -3.0084407
30.907654 -70.543793 8.5649633
46.528297 -71.640251 17.434502
28.424255 -4.5148659 7.5379605
37.750031 -49.010597 13.477559
28.266476 -69.007736 7.6287408
38.160339 -66.334084 13.947378
20.904087 -30.4305 2.7929285
9.563962 16.060331 -4.6025043
51.815811 28.327503 23.105015
34.65802 -70.562683 11.201479
43.970146 -35.430561 17.427191
30.58931 3.1565046 7.9899697
29.936361 35.846462 7.7988801
43.456158 -67.469673 16.276854
26.883074 28.647276 5.8649259
38.03022 -53.973122 13.470493
28.070969 -49.248669 7.3869405
37.922985 -46.729076 13.56001
23.962061 7.0302401 4.7469616
16.234743 -16.394032 -0.067514792
19.681826 36.739174 1.89196
8.8614807 -27.09248 -5.2679439
8.3543177 -27.423388 -5.6694884
53.515041 24.405687 23.600605
34.516644 40.264133 11.484121
19.612719 22.825468 1.700243
40.21727 -57.616928 14.346505
37.572742 -64.104912 12.70683
14.48761 -18.24258 -1.7856333
55.439186 18.4102 25.332718
22.133797 37.339352 3.4860926
56.134247 14.4499 25.772411
42.651722 -62.688499 15.973955
56.585178 10.2634 26.053909
44.693417 -31.834719 17.49098
28.494663 -45.404789 7.0642881
17.323006 35.254925 0.25662163
23.178493 36.690113 3.7688406
4.601758 16.670523 -8.2885351
26.803162 -5.9134388 6.083766
56.816235 6.33113 26.127211
38.134121 -65.430962 13.104901
28.648182 -58.241413 7.0371714
28.236052 -65.122734 6.9741373
37.982395 40.556839 13.525058
29.786703 -0.7286877 7.6532454
22.516211 -14.495161 3.2461946
25.048584 -2.3735526 5.2940202
26.87113 -42.501884 6.2069678
22.989702 -4.017746 3.4861789
24.272959 -38.071018 4.5073757
24.164133 34.143467 4.4213524
20.271435 18.159195 1.7266902
37.942886 -62.773888 13.450161
8.5586739 25.425833 -6.4080758
21.032019 -26.912216 2.5672669
25.002985 31.352161 5.0789242
29.074543 3.3296614 7.4331245
56.757851 2.6796701 25.884779
14.576536 23.509293 -2.463603
26.275455 29.574379 5.4129219
27.18998 4.5285888 5.9861674
37.566727 -53.411026 12.576743
27.380377 -0.90489733 6.6897192
30.745678 -68.510696 7.618669
24.303267 -10.97814 2.9226334
29.593985 -2.1426275 7.4354229
33.192814 -68.699402 8.4864378
31.616858 37.610184 8.58006
31.170767 -3.6288683 8.9459143
12.681745 30.27177 -3.2057843
25.235346 -10.872578 4.0313339
20.006914 25.598095 1.0598106
50.145832 -19.888866 21.003117
22.42009 -13.979887 3.5608349
10.252161 15.950374 -5.1355114
43.172729 38.140514 16.186073
30.102757 2.295042 7.7872081
41.055885 -41.360474 14.907036
5.6692858 18.42676 -8.8044271
21.400139 13.057807 1.8904644
39.990551 -64.023727 13.821766
52.855885 -14.369226 22.91847
9.08255 -14.332662 -5.6786103
10.486775 -26.188066 -5.1093974
11.7113 19.054085 -4.23458
5.3955159 15.079649 -8.3801565
38.018604 -68.303619 13.793429
28.694118 -60.549732 6.9360008
22.275969 -31.591686 2.8330982
47.860596 33.310982 19.324488
42.496456 -39.452339 16.195492
22.341637 10.821225 2.2572467
33.132702 39.235851 9.8380671
7.567246 -27.432148 -6.8798065
30.439661 -0.01223677 7.7984962
23.30784 -17.156258 2.8334811
41.239517 39.256485 14.945026
13.637187 -10.201362 -2.9400024
29.125164 33.147038 6.6082458
16.53191 -16.489437 -0.72350407
12.294697 -20.469959 -4.200304
21.897324 -22.429861 2.6266861
23.457893 8.8423157 2.8696249
24.991877 -10.211007 3.9597871
49.964275 30.277344 20.620474
32.655178 -0.57546121 9.2490158
6.4274254 -21.37225 -8.2551947
11.510011 -24.123083 -4.6052032
26.620283 -40.38726 5.4235272
37.079651 -68.47419 12.0034
23.958117 -33.253651 3.0877891
6.4830642 21.932648 -7.8376522
6.5329871 14.118351 -7.6418471
51.797169 27.419321 21.957104
7.9360623 14.118589 -7.2717395
9.6296806 -27.203844 -5.9244566
39.486156 -41.957726 13.159126
25.414373 -1.8248371 4.8221636
15.234866 32.25399 -2.0924897
29.299282 -3.8558519 6.7476182
55.185368 -6.5599098 23.977024
33.943798 -1.4043067 9.4758444
6.8262458 -19.293394 -8.0197973
38.635712 -55.825672 13.207349
29.809433 -50.373608 7.6103306
25.87661 30.198822 4.830997
6.36239 -25.941067 -8.2322283
9.0463123 14.726202 -6.0663199
19.601562 35.676163 0.80349106
23.24229 -29.875479 2.5555606
21.44087 36.341457 1.9863904
37.326748 -66.809631 11.695374
18.972494 27.753296 -0.60851574
17.606556 26.357349 -0.7729497
19.567795 27.589581 0.75844616
27.103094 28.626942 4.8861403
27.521275 28.03002 5.0243697
12.240999 -21.257261 -5.0212622
46.395309 -69.999794 17.372116
17.986929 34.460159 -0.46811026
22.975512 35.86031 2.5324633
42.074837 -60.770653 14.670876
23.85252 -13.789438 2.9930792
37.543167 -45.610569 12.558706
27.225903 -0.75010401 5.7905097
17.92025 -7.1869102 -0.086719207
54.419548 21.001879 22.950054
29.855459 -45.564693 7.3526225
46.28278 -68.421555 16.634699
36.327595 39.650608 11.435568
36.922188 -49.231907 11.875652
34.008049 -3.1680598 9.8731689
14.702569 -18.675596 -3.2783692
30.308781 -43.680763 7.1542082
24.21195 35.162773 3.6393189
47.924229 -24.738949 19.563038
30.025387 -64.275032 6.893671
25.237425 -12.334651 3.458101
55.347855 17.7757 23.923702
28.760305 -0.186318 6.6425209
43.325539 -65.763336 13.98004
24.091999 -11.782811 2.6641197
23.161505 -14.22442 2.8661292
41.795948 -39.196262 14.4591
56.377224 9.7627602 24.496555
55.973492 13.9079 24.229593
45.405354 -28.100079 16.867361
56.580528 5.9973602 24.599369
31.840555 -57.606533 7.6084657
46.613911 -70.899841 17.092947
8.2523241 23.547192 -8.5891886
8.4194927 -27.544331 -6.9147458
38.625214 -42.447384 12.483453
25.000042 33.084763 3.6161902
39.074028 -63.758457 12.517335
37.883312 -64.810501 11.863584
52.448685 -13.940238 21.463327
24.265497 -27.285208 2.4631565
25.509676 31.391499 3.7755187
56.481625 2.5206101 24.397299
16.829159 -16.424961 -1.4322975
37.482296 -65.696663 11.349871
44.583256 -29.977295 16.10511
31.499207 -49.205227 7.9466767
31.362686 -51.725796 7.8840427
31.53698 0.0052946401 7.5898337
27.894403 -6.9772868 5.5488348
28.959799 3.5768795 6.410707
9.4825907 -14.524549 -6.6726308
39.474628 39.130547 12.957689
44.188854 -65.09024 15.917581
28.239124 27.990717 4.9295835
36.371517 -47.680817 11.197271
53.962189 -9.5730486 22.172325
33.599159 3.615541 9.0340586
34.458927 -3.9322159 9.4503736
36.283066 -45.228268 11.007347
29.955223 -6.2503448 6.7119412
23.059324 -14.297492 2.4395387
5.6899648 17.503195 -9.1704454
11.572177 -24.522602 -5.3837929
43.743454 -66.346649 14.722088
45.007748 34.997684 15.934109
35.063416 -68.311607 9.6335907
25.933779 -11.340849 3.0153415
10.67717 26.899736 -6.3231821
6.7835932 21.406992 -8.7369413
8.2584124 -16.478907 -7.5526867
29.396988 -6.3278728 5.8910775
37.703327 -55.230587 11.857826
31.358364 -45.388489 7.8150511
55.86504 -1.9298633 23.611927
46.260593 -69.384125 15.974113
9.4095955 15.078389 -7.142724
10.968822 16.827406 -5.9982638
25.128336 7.3314919 3.1625781
31.355503 -62.309196 7.0410652
29.444101 -41.043278 6.3237901
25.765335 -1.6436563 4.0965543
36.580345 -54.25774 10.821101
36.855392 -43.680447 11.216788
32.684742 0.31952602 8.0867672
21.425522 15.503 1.0884465
7.9542785 -18.761644 -9.1295643
6.0941167 15.647473 -9.1149626
27.090719 -38.357567 4.8996253
20.428747 27.615911 0.2511963
34.563156 38.599129 9.5890703
30.623735 2.9762695 7.2507706
26.301876 -34.456203 3.4486992
16.860138 32.18795 -2.0652308
18.166647 -7.0949082 -1.2306622
9.2874374 -27.110729 -7.5554132
27.559734 5.2803807 4.4076209
47.763813 -23.305117 18.251724
32.883919 -45.507298 8.5005007
32.808857 2.2864273 7.9710755
10.903091 -12.970989 -5.9310555
33.675438 4.2403135 8.6127224
32.392365 2.659986 8.1673727
14.218772 -10.047481 -4.1002712
30.836802 2.2181289 8.2370281
53.347008 22.636082 21.372272
35.553497 -51.495377 10.090777
7.7627921 -26.40996 -8.4482088
43.779694 -33.405426 15.173955
28.011509 -0.48622301 5.3106203
34.519547 -45.538673 9.5137854
24.219353 -19.393339 2.6294625
6.7532392 -20.750368 -8.7874317
20.9191 24.769602 0.67261046
31.140959 35.012482 7.0699434
10.634542 -26.292107 -6.5704422
33.306789 -5.9718013 8.1008854
7.2777576 14.590446 -8.6008034
33.422161 -52.414646 8.5935183
42.510391 -65.575935 12.208618
21.605362 33.382034 -0.077879205
8.2538729 14.495263 -7.986742
31.926476 -2.8638339 7.3882232
35.598103 -42.572319 9.9488907
33.534096 -42.753651 8.6408815
29.695297 -0.021121999 6.258141
39.592152 -57.81221 12.339113
26.499233 29.057096 3.8361053
19.693899 28.655993 -0.82315028
22.346777 13.329094 1.0206244
41.185852 37.649197 13.023856
20.410038 28.787401 -0.33487207
54.555767 -6.444191 21.806145
9.731576 24.494223 -8.4216137
38.177715 -41.382771 11.532461
54.902225 17.388132 22.137598
33.075031 -41.376957 8.0095282
17.23756 -16.167349 -1.9250739
33.777126 -56.15102 8.4006786
23.872089 32.233315 1.1600169
12.646441 -20.638002 -6.0241747
37.932186 38.614471 11.278239
34.921616 -54.289928 9.3462124
24.415073 -13.620167 2.4300604
36.969387 -55.6688 10.595041
29.619066 -39.505337 5.894536
13.40014 -19.715837 -5.2356901
23.208836 11.273402 1.344306
34.222816 -1.28071 8.9944515
32.542553 -5.0955267 6.5547915
7.6229811 -20.987226 -9.7624302
13.982556 22.585478 -4.503087
32.598698 -0.3711738 7.1472378
32.014771 -65.433586 7.2821188
41.899963 -60.60854 13.052333
20.207287 33.513363 -0.54487944
33.761406 37.404102 8.5498838
47.936115 -21.2258 17.444418
36.160389 -65.747322 9.6058283
35.708672 -55.348389 9.7313805
10.000922 -14.800976 -7.3891869
25.396524 31.653065 3.1950214
26.27964 -9.3198948 2.8316023
56.119667 7.0995517 23.131397
12.042001 -22.435801 -6.2171264
15.466869 -17.766687 -3.7983818
7.0924749 21.624084 -9.1900005
25.534277 -32.192947 2.9041488
12.861443 20.776176 -5.3680077
29.436697 -7.9697661 5.1949677
28.132792 -35.710857 4.0594039
30.276999 3.2980874 6.3037891
21.817507 19.124285 0.63160849
40.899384 -38.209267 12.846847
24.366947 9.3196974 1.8870498
47.643635 30.879898 17.039886
35.697498 -3.569591 9.7279472
36.820702 -65.520607 10.164743
22.032209 23.515966 0.5766657
38.459084 -65.251717 11.326473
51.632542 25.852005 20.283638
6.2581849 18.184877 -10.037477
9.7763653 14.922638 -7.7011781
55.498268 13.7676 22.580526
55.988754 2.3615601 22.883553
34.050285 -1.3903927 8.1472759
23.565304 -3.865561 2.0158639
31.847044 2.9383035 7.206955
43.15641 -33.920952 14.200674
7.004714 -23.828503 -8.8838434
52.482155 -12.234595 20.526495
7.9542046 -25.59218 -8.7377806
35.238213 -5.2145181 9.0569973
6.4574294 15.531711 -9.8811665
6.014102 16.933962 -10.320723
34.253288 -66.907066 8.4020853
25.53838 -2.3136852 3.0105767
33.087868 -60.441544 7.5651274
36.010944 3.1346207 9.4126005
44.977859 -25.595261 15.104506
11.532501 16.965765 -6.939333
38.153473 -65.134712 10.753408
7.4160132 14.639469 -9.6050596
25.495682 -12.725288 2.4519067
37.128185 5.4524231 10.106423
6.9847159 18.93158 -10.54278
10.768343 15.801181 -7.3302145
36.376858 -4.7455244 9.4583282
21.469429 28.599665 -0.065397143
54.08189 19.504522 21.175854
55.218662 -2.9103847 22.070072
8.3572693 14.283408 -8.6486769
24.652128 -13.681916 2.099324
31.466928 -7.5961604 6.4312606
30.224697 31.125261 5.423564
29.4552 26.645773 4.113225
26.643532 -29.391165 2.7085705
28.256117 -0.7369287 4.5199738
40.710896 -65.382736 11.655479
22.814672 14.824333 0.452627
33.045975 34.725174 6.9564548
25.194847 -23.047464 2.5612493
44.0462 -28.238241 14.468311
25.493664 -11.384708 1.9304184
43.374573 35.369823 13.720205
37.599766 0.33526731 9.5029154
33.305622 -62.492603 7.5346465
27.207157 27.337452 2.9856
12.950664 -11.949465 -5.9236293
35.463047 37.285885 8.8938656
39.560173 -59.160282 11.254026
30.059381 -36.67931 4.8428321
20.283913 -14.4508 -1.1386777
17.16728 -15.717104 -3.3636739
10.038936 -14.757533 -7.6960592
33.73666 -64.661629 7.8108654
11.07033 -14.04857 -7.1030636
28.396227 26.781265 3.9996583
9.2501764 -16.602509 -8.1772585
8.9827843 -26.238483 -8.3318205
35.41238 3.5042961 8.4807348
48.051289 -71.475075 16.569567
17.090227 26.140797 -2.7682443
35.230976 -59.127892 8.4417915
11.426259 25.841558 -7.3680997
26.069237 29.541218 2.539726
30.632845 -0.20756599 5.8490725
31.365982 -7.0937037 5.8035069
23.180548 23.281923 0.62541735
34.064976 -7.3371463 7.8216252
35.659473 -64.014725 8.8378925
36.194286 -37.818512 8.532794
38.359375 -59.651974 9.9929361
10.159416 -25.914604 -7.7174497
33.693047 3.2342968 7.5516973
24.819218 -12.837745 1.5065711
34.219246 -1.3422 8.0692453
32.150707 3.2207532 6.5375299
19.511137 -6.8748884 -1.5357156
43.760067 -63.760201 14.378125
52.932049 -9.829072 20.080278
39.281418 37.285225 11.088931
32.352829 -38.332008 6.288538
14.678915 27.723034 -5.2382326
41.902748 36.217175 12.575565
35.68195 -61.448845 8.3867292
51.251823 24.579256 18.866087
19.381098 30.875494 -1.9027433
20.626909 30.208961 -0.93419904
34.655914 -62.620159 8.12152
52.611439 21.36385 19.478264
32.089905 32.010712 5.7053113
42.50742 -33.140842 12.870924
39.120136 -37.203911 10.772801
29.970432 4.3757401 5.1075692
34.601784 -3.1277683 7.8523717
13.45619 22.657537 -6.7834053
24.537327 -4.0614376 1.4839042
21.912634 30.037748 -0.18335073
37.288967 -7.6189656 9.2051163
40.099888 -65.426056 11.072556
15.807341 25.213358 -4.2439599
55.423405 6.9387622 21.580887
28.089371 -32.129524 3.3023293
38.63393 -64.323303 10.486049
7.3758502 -23.745905 -9.9562492
9.4014559 -26.190691 -8.7740765
10.836563 -15.188012 -7.8491511
38.429604 5.858912 9.8085546
8.2890091 -25.484211 -9.6216726
25.941412 -19.971533 2.3929577
39.8563 3.35953 10.569249
54.669624 11.848788 20.595503
21.885178 31.893482 -0.29843706
13.016462 21.241791 -6.7419033
26.178289 8.2724695 2.1113656
12.689192 25.547476 -7.2042012
41.481941 -60.877068 12.056871
39.50774 5.0717568 10.554697
8.8349752 -19.211672 -9.7509117
11.731115 -23.316107 -7.9402528
42.694107 -30.928158 12.479026
39.603519 -64.830132 10.82242
27.271088 -9.1994162 2.3506973
27.418869 -1.9684832 3.1511612
16.459547 26.804661 -4.064683
55.173367 1.0829048 21.205032
7.3412862 16.045237 -10.670479
13.89117 -18.589941 -5.951201
48.215221 -17.586325 16.287687
25.910147 -12.578032 1.7374331
45.201794 32.412819 14.22646
11.073984 -24.755365 -7.9410925
7.6182613 17.099146 -10.801269
34.308197 -37.202332 7.0254641
25.403982 28.565439 1.4510484
15.771929 27.273502 -4.765954
23.873913 25.314108 0.68770993
37.152893 -6.4497638 9.2254467
27.930996 6.3941355 3.3356075
24.764694 11.05273 1.0074978
36.984035 -63.004318 9.2451916
53.747143 17.7369 20.134712
29.759178 -33.634811 4.0316849
33.661209 3.5181463 6.9424095
43.069714 -63.257587 12.610536
46.779362 -20.020212 15.329814
14.867608 -10.374893 -4.8753171
40.323708 -34.343124 11.035307
42.092072 8.754529 11.865133
21.011938 -6.6165366 -1.2178566
48.352291 -70.376343 15.739447
12.632753 -19.965265 -7.1571054
24.335442 15.711943 0.40218732
12.235914 -14.11321 -7.0435066
28.012779 -7.9827075 2.2383785
39.827072 -60.800507 10.874071
9.630661 15.054479 -9.4715862
24.521477 17.769253 0.49101877
45.363655 -67.188354 13.821959
36.459049 -8.641345 8.5475445
54.469383 -3.27108 20.520992
25.642092 26.08626 1.3736249
36.898586 35.986298 8.8155031
42.46088 6.6777139 11.846968
29.67643 -1.06856 4.3692279
40.136776 -62.360977 10.943299
10.028589 -17.308928 -8.6281309
14.580546 -11.467965 -5.6489172
11.322877 16.596304 -7.8197231
35.256321 -2.8549099 7.9277492
53.414299 -5.7460694 19.276182
8.409337 15.200774 -10.286538
31.592722 -0.72020501 5.5249701
36.209053 -4.7871623 8.4975672
33.543488 -1.19214 6.7724953
26.456514 -10.85995 1.8191367
39.929829 -63.839146 10.762949
48.483852 -70.429703 15.249336
28.069893 25.666941 2.8075624
28.436825 -24.961065 2.8118138
36.332493 4.3217673 8.3710909
52.442909 -8.9886847 18.902044
43.43581 -25.749485 13.089682
27.598063 25.167208 2.2665415
7.7933264 21.367294 -10.406239
30.495968 5.5281124 4.3459015
33.093468 -8.9678802 6.3639946
47.143799 27.809092 14.368886
31.376329 28.977921 4.6312823
25.935707 -4.1831579 1.6214685
40.953693 -31.583874 10.620011
38.355724 -2.914582 9.0156145
17.623581 -14.689467 -3.6974163
8.5332975 22.234194 -10.363225
41.743248 8.7948761 11.547921
36.535641 -4.561573 7.8561115
25.384655 24.834085 1.1589338
31.770184 -9.3083239 5.1914868
40.366737 35.66415 10.818162
24.656706 13.048352 0.6273939
9.5155869 -25.606844 -9.3984499
49.893681 -12.722092 16.842623
11.538009 -15.903804 -7.991169
13.232622 23.427801 -7.536201
27.868332 -20.892954 2.4399359
43.925739 -66.168968 12.676264
54.571594 6.8075762 20.139889
24.611128 -11.95116 0.59593213
34.811108 -9.9959059 6.9329448
29.487316 24.859776 3.3717494
8.4706173 -22.793264 -10.418617
32.232468 -34.88892 5.303987
52.627304 16.926714 18.469343
23.994883 -5.9791775 0.036035933
41.731266 -62.990807 11.580766
10.992333 23.285944 -9.1757803
13.392731 -14.751096 -6.8499413
13.49137 24.431372 -7.1568713
13.169642 -18.076042 -7.1044855
27.439417 -14.117446 1.7701783
43.854755 -22.708326 12.841978
28.415577 7.1912704 2.9002669
33.183304 4.6909451 5.9304581
38.115864 -33.411396 8.9099483
20.548969 -9.1929808 -2.3778744
7.2509079 19.375622 -11.326711
35.323689 4.7030845 7.239635
15.119967 -12.456018 -5.7873678
51.546589 19.5207 17.621336
28.544401 -2.6666801 3.0107124
18.040178 -13.808837 -3.8314228
37.084614 5.1862926 8.3414116
12.194837 -19.16404 -8.0234928
11.604594 18.186413 -8.4159307
43.699909 -64.605408 12.204034
42.179287 33.61697 11.191366
49.037621 25.019337 15.891771
14.937023 -15.550414 -5.9776249
8.4788485 -24.551491 -10.167575
53.867386 -1.9752693 19.26679
9.3024178 -20.365631 -9.9425602
46.651051 -68.346436 13.753157
10.517714 -25.395849 -8.6558208
9.436965 22.339634 -10.280484
34.658543 -2.5496199 6.844162
35.568275 32.719715 6.8017039
42.64093 -25.371437 12.01208
41.175735 -65.241669 10.79631
11.486053 -18.174345 -8.4636278
35.646904 -4.3789001 7.438674
32.971283 -1.4744101 5.7003903
27.851679 -4.4957929 2.2206032
15.556943 -13.450311 -5.6838284
24.935774 -10.498676 0.17739597
42.994583 10.134983 11.963223
27.507681 9.0251799 1.9543498
20.408995 -11.787832 -2.6061523
33.446541 -10.312277 5.4105544
24.225845 -7.4965401 -0.26312646
30.599672 -2.2788436 3.8672795
31.291142 -29.312521 4.0689654
36.441364 -6.7176752 7.6248155
27.726915 -8.803546 1.9648983
21.031969 -10.478005 -2.2819817
53.601074 9.0367098 18.92643
51.789928 -8.2609377 17.715069
43.610783 32.718395 12.278708
37.7089 -9.6860437 8.067275
26.284416 12.463211 0.98820978
39.437038 8.0764618 9.1112785
42.052258 -1.7199097 10.664048
9.4878349 -23.682035 -10.144588
42.228809 2.9250579 11.361846
30.231237 -24.630426 3.1512709
32.425037 6.4579487 4.739656
34.245029 -31.267241 5.816752
8.5066299 16.23012 -10.65028
45.121689 9.6905708 13.090266
27.876974 20.636309 1.6851768
46.564049 -17.538734 14.123253
37.805004 34.058781 8.4067974
28.317532 -6.0665674 2.0909998
27.652136 -10.190034 1.7047291
30.05162 23.493221 3.0883203
46.223961 -66.940331 14.023467
33.554733 30.822351 5.5259967
9.5630884 16.140472 -10.123998
43.29332 12.093078 11.382383
36.477535 -32.405663 7.4250216
10.79546 -23.927259 -9.1847715
41.637695 -26.648031 10.719584
34.899265 -3.5997257 6.4787664
43.888485 -66.495575 12.226814
28.947416 -7.1342258 2.3634968
40.950542 -29.261084 10.069263
30.571142 8.0290737 3.293251
28.100666 10.676538 1.7416674
34.812634 -11.22053 6.2261958
40.45948 32.65799 9.5181332
11.951879 18.840496 -9.188345
52.916977 -1.2021068 17.913069
33.301086 -2.7613583 5.2415276
45.290226 12.16663 13.028523
27.446428 15.134541 1.2206745
43.433617 -66.071899 11.769467
49.085152 23.15612 15.463258
27.476133 -7.6650047 1.5067724
52.718643 8.8807678 17.93602
12.221174 23.052639 -8.6713238
38.845848 -12.939566 8.5242214
37.74382 -11.987311 8.2104025
30.308691 21.834206 2.8667655
45.27272 14.331475 12.488548
8.6819935 16.379107 -11.202711
51.07233 16.855125 16.811857
41.814571 -22.321819 10.72689
44.851124 3.5676515 12.526916
40.356812 -21.451777 9.2445517
38.950504 -5.5410943 8.5457945
10.403907 16.961002 -10.546966
8.3316879 19.504143 -11.792367
48.297058 -69.65976 14.741674
34.698414 -5.0441728 5.7996917
46.377468 -67.861755 13.371176
51.587296 -6.2862368 16.919912
30.13937 -5.9234838 2.8234005
51.446362 8.3203201 16.719568
45.789825 -66.636185 13.393728
47.398846 9.8834076 14.143755
45.648262 -16.855455 12.919998
38.050591 -13.953579 7.9910245
41.22644 -24.655819 10.003633
47.9692 12.955104 14.480352
50.225159 13.97243 15.968864
12.190359 20.427277 -9.3570452
38.208908 -29.302183 7.5271664
48.136971 22.39661 14.254294
47.790054 -12.914768 14.289455
30.279968 -6.4611769 2.5616341
35.975632 -8.1391363 6.5308833
31.816437 -4.8956633 3.7447231
48.99334 17.962595 14.98715
29.111996 14.706707 1.8745092
47.130627 15.564394 13.71575
41.000622 -20.577538 9.7300434
29.171484 -9.7818079 1.9151598
35.846275 -13.064124 6.3893194
47.945126 4.726697 14.163768
51.79837 -1.1773182 16.646385
38.319759 31.429594 7.7432237
35.408634 -11.511006 6.058075
49.782787 6.088665 15.376002
35.124897 7.5126743 5.8861814
29.064932 -13.933187 1.9987106
34.535477 28.725313 5.2204847
46.040241 25.382185 12.066434
32.912109 -24.38166 3.9995039
39.510586 -19.045504 8.565465
39.329254 -8.2361488 8.3146133
45.422806 -15.218502 12.293951
50.586884 -1.075384 15.468647
31.19272 19.028097 2.9237344
38.310688 -27.164886 7.0168643
9.5437164 19.596189 -11.42374
38.377956 -13.340645 7.3971353
42.72427 -4.5066853 10.326278
41.61182 10.764855 9.9711075
40.724449 -22.639385 9.3171778
31.279896 -22.242008 3.2688253
31.075068 10.243226 3.0184855
39.422729 -15.362457 8.2881546
31.010582 12.000214 2.7643807
39.7976 -17.46575 8.686739
39.379807 -10.786139 8.1636705
49.503811 -0.87060583 14.587112
33.194096 9.2629566 4.2284575
39.128872 -27.85574 7.8784351
9.1494446 17.259815 -11.574263
36.283611 -26.628954 5.8622627
